0.478200 -0.102454 0.214058 0.500000 0.000000 0.500000
0.404977 0.470896 0.423563 0.000000 0.500000 0.500000
0.660525 -0.242904 0.151016 0.000000 0.500000 0.500000
0.660525 0.059963 -0.357391 0.000000 0.500000 0.500000
-0.690676 0.229255 -0.263860 0.300000 0.600000 0.000000
0.201672 -0.102454 -0.366659 0.500000 0.000000 0.500000
0.607445 0.260225 0.396895 0.800000 0.200000 0.500000
0.332643 -0.458033 -0.440863 0.800000 0.200000 0.500000
-0.595114 0.418710 0.086013 0.800000 0.200000 0.500000
-0.332471 -0.102454 0.213591 0.500000 0.000000 0.500000
-0.153600 0.014281 0.423563 0.300000 0.000000 0.600000
0.482299 0.435229 0.423563 0.000000 0.500000 0.500000
0.533159 -0.462478 0.017695 0.600000 0.300000 0.000000
-0.196557 -0.102454 0.349933 0.500000 0.000000 0.500000
0.346862 -0.623102 -0.456495 0.800000 0.200000 0.500000
0.673455 0.559812 -0.320902 0.000000 0.500000 0.500000
0.587719 -0.292870 0.396895 0.800000 0.200000 0.500000
0.582742 0.436921 0.355280 0.300000 0.600000 0.000000
0.323466 0.471295 -0.314263 0.300000 0.000000 0.600000
-0.672897 0.369277 0.126830 0.300000 0.600000 0.000000
0.609411 0.403219 0.115764 0.300000 0.600000 0.000000
0.276593 -0.468198 0.396895 0.800000 0.200000 0.500000
-0.672897 0.067581 0.352842 0.300000 0.600000 0.000000
0.215151 0.459119 0.370227 0.000000 0.500000 0.500000
-0.502896 -0.102454 0.311662 0.500000 0.000000 0.500000
-0.320324 -0.037177 0.396895 0.300000 0.000000 0.600000
-0.292048 -0.268121 0.396895 0.300000 0.000000 0.600000
0.571446 -0.075785 0.359798 0.500000 0.000000 0.500000
-0.278804 -0.013172 -0.429827 0.300000 0.000000 0.600000
0.071597 0.418492 0.351116 0.600000 0.000000 0.300000
-0.361403 0.395357 0.114244 0.000000 1.000000 0.000000
0.107295 0.395357 0.203694 0.600000 0.300000 0.000000
0.124019 -0.364820 -0.416492 0.300000 0.000000 0.600000
-0.621177 -0.309173 0.423563 0.300000 0.000000 0.600000
-0.549625 -0.075785 0.369036 0.500000 0.000000 0.500000
-0.592796 -0.318206 0.423563 0.300000 0.000000 0.600000
0.441805 0.365373 -0.429827 0.300000 0.000000 0.600000
0.471455 0.348213 0.423563 0.000000 0.500000 0.500000
0.122725 -0.075785 -0.202333 0.500000 0.000000 0.500000
0.660525 0.407650 -0.030763 0.000000 0.500000 0.500000
-0.699565 0.555407 0.372886 0.600000 0.000000 0.300000
-0.175997 0.395357 0.128672 0.000000 1.000000 0.000000
-0.122485 -0.355599 -0.416492 0.300000 0.000000 0.600000
0.105567 -0.462478 -0.215817 0.600000 0.300000 0.000000
-0.359751 -0.075785 -0.013037 0.500000 0.000000 0.500000
-0.690676 -0.221041 -0.184436 0.300000 0.600000 0.000000
-0.426293 0.309716 0.396895 0.600000 0.000000 0.300000
-0.690676 0.214542 0.046498 0.300000 0.600000 0.000000
-0.616887 0.533144 -0.312494 0.600000 0.000000 0.300000
0.687194 0.305076 0.380416 0.600000 0.000000 0.300000
0.678304 0.250738 -0.207804 0.000000 0.500000 0.500000
-0.690676 -0.243961 -0.064913 0.300000 0.600000 0.000000
0.315941 -0.462478 0.174122 0.600000 0.300000 0.000000
0.064234 -0.075785 -0.137279 0.500000 0.000000 0.500000
-0.592805 -0.462478 0.172842 0.600000 0.300000 0.000000
-0.302354 0.422331 0.476422 0.300000 0.000000 0.600000
-0.222590 -0.442997 -0.416492 0.300000 0.000000 0.600000
-0.621094 -0.102454 -0.134856 0.500000 0.000000 0.500000
-0.300007 -0.108257 -0.429827 0.300000 0.000000 0.600000
0.201250 0.136523 -0.429827 0.300000 0.000000 0.600000
-0.690676 -0.338554 0.223167 0.300000 0.600000 0.000000
0.168546 -0.362940 0.423563 0.800000 0.200000 0.500000
0.638501 -0.075785 -0.343087 0.500000 0.000000 0.500000
0.636569 -0.274113 0.396895 0.800000 0.200000 0.500000
0.512142 -0.075785 -0.304940 0.500000 0.000000 0.500000
-0.148792 0.412974 -0.416492 0.300000 0.000000 0.600000
0.247887 -0.102454 0.039975 0.500000 0.000000 0.500000
-0.690676 0.319518 -0.393568 0.300000 0.600000 0.000000
0.678304 -0.264426 0.232365 0.000000 0.500000 0.500000
0.333144 0.395357 -0.045504 0.600000 0.300000 0.000000
0.535866 -0.383223 0.396895 0.800000 0.200000 0.500000
0.437810 0.358540 0.396895 0.000000 0.500000 0.500000
0.387036 -0.462478 -0.326966 0.600000 0.300000 0.000000
0.114814 0.395357 -0.240733 0.600000 0.300000 0.000000
0.480526 -0.658625 -0.456495 0.800000 0.200000 0.500000
0.430524 0.448326 0.423563 0.000000 0.500000 0.500000
-0.468013 -0.169281 -0.429827 0.300000 0.000000 0.600000
0.330342 -0.482717 0.423563 0.800000 0.200000 0.500000
-0.021672 -0.462478 0.141451 0.600000 0.300000 0.000000
-0.515613 -0.092072 0.370227 0.500000 0.000000 0.500000
-0.595114 0.447812 -0.241479 0.800000 0.200000 0.500000
0.039047 0.230367 0.396895 0.800000 0.200000 0.500000
-0.027097 -0.243151 0.396895 0.600000 0.000000 0.300000
-0.540861 0.373453 0.370227 0.600000 0.000000 0.300000
-0.185490 -0.232285 0.396895 0.300000 0.000000 0.600000
-0.252536 0.395357 0.306877 0.000000 1.000000 0.000000
0.013701 0.276076 -0.429827 0.300000 0.000000 0.600000
-0.134405 -0.102454 -0.304970 0.500000 0.000000 0.500000
-0.028283 0.225497 0.423563 0.300000 0.000000 0.600000
-0.161637 -0.462478 -0.239164 0.600000 0.300000 0.000000
-0.690676 -0.078062 0.196168 0.300000 0.600000 0.000000
-0.193630 0.191886 0.423563 0.300000 0.000000 0.600000
0.247897 0.346573 -0.416492 0.300000 0.000000 0.600000
-0.621782 0.467412 0.024064 0.800000 0.200000 0.500000
0.166388 0.555406 -0.456495 0.300000 0.000000 0.600000
-0.416263 -0.498254 -0.456495 0.800000 0.200000 0.500000
0.082044 -0.488319 0.370227 0.600000 0.000000 0.300000
-0.690676 0.400905 -0.441528 0.300000 0.600000 0.000000
-0.115838 0.299867 0.396895 0.600000 0.000000 0.300000
-0.690676 -0.281331 0.286277 0.300000 0.600000 0.000000
0.071597 0.420180 -0.076953 0.600000 0.000000 0.300000
-0.024683 -0.356057 0.423563 0.300000 0.000000 0.600000
-0.420806 -0.075785 0.087266 0.500000 0.000000 0.500000
-0.672897 0.347450 -0.124699 0.300000 0.600000 0.000000
0.373273 -0.462478 -0.135054 0.600000 0.300000 0.000000
0.678304 -0.112034 0.148354 0.000000 0.500000 0.500000
-0.575514 -0.462478 -0.030475 0.600000 0.300000 0.000000
-0.690676 -0.206376 0.241269 0.300000 0.600000 0.000000
-0.652561 -0.462478 -0.102957 0.600000 0.300000 0.000000
-0.524916 0.310231 -0.416492 0.300000 0.000000 0.600000
0.211403 -0.462478 -0.184916 0.600000 0.300000 0.000000
0.558541 0.515365 -0.032265 0.300000 0.000000 0.600000
0.133545 -0.075785 -0.120857 0.500000 0.000000 0.500000
-0.672897 -0.212424 -0.363662 0.300000 0.600000 0.000000
-0.608054 -0.147233 -0.429827 0.300000 0.000000 0.600000
-0.015822 -0.121462 0.396895 0.300000 0.000000 0.600000
-0.595114 0.419060 0.180880 0.800000 0.200000 0.500000
0.450721 -0.102454 -0.340012 0.500000 0.000000 0.500000
-0.196365 -0.635423 -0.456495 0.800000 0.200000 0.500000
0.188610 0.246169 0.396895 0.800000 0.200000 0.500000
0.609411 0.370980 0.180720 0.300000 0.600000 0.000000
-0.196815 -0.102454 0.153225 0.500000 0.000000 0.500000
-0.690676 -0.660300 -0.218995 0.500000 0.500000 0.000000
0.195864 -0.102454 -0.188588 0.500000 0.000000 0.500000
-0.690676 0.074008 -0.027340 0.300000 0.600000 0.000000
-0.402775 0.057968 0.396895 0.300000 0.000000 0.600000
-0.102007 0.010260 -0.416492 0.300000 0.000000 0.600000
-0.083969 0.408464 -0.290740 0.000000 0.000000 1.000000
-0.690676 0.009731 -0.240491 0.300000 0.600000 0.000000
-0.491198 0.138649 0.396895 0.300000 0.000000 0.600000
-0.280880 -0.412767 -0.416492 0.300000 0.000000 0.600000
-0.649529 -0.102454 -0.198928 0.500000 0.000000 0.500000
0.678304 -0.546063 0.132162 0.000000 1.000000 0.000000
-0.135756 -0.075785 -0.200366 0.500000 0.000000 0.500000
-0.252186 -0.488025 0.285777 0.500000 0.000000 0.500000
0.194200 -0.164184 0.396895 0.800000 0.200000 0.500000
-0.375908 0.395357 -0.264151 0.000000 1.000000 0.000000
-0.672897 -0.047640 -0.131105 0.300000 0.600000 0.000000
-0.040239 -0.462478 0.184631 0.600000 0.300000 0.000000
-0.322856 0.462644 -0.287595 1.000000 0.000000 0.000000
-0.567512 -0.075785 -0.312909 0.500000 0.000000 0.500000
-0.625986 0.187318 -0.416492 0.300000 0.000000 0.600000
-0.184536 0.265228 -0.416492 0.300000 0.000000 0.600000
-0.408478 -0.075785 0.150827 0.500000 0.000000 0.500000
0.393748 -0.102454 -0.223771 0.500000 0.000000 0.500000
0.133769 -0.290660 0.423563 0.800000 0.200000 0.500000
-0.045736 -0.075785 0.032606 0.500000 0.000000 0.500000
0.126617 -0.398750 0.396895 0.800000 0.200000 0.500000
0.217403 -0.102454 0.137801 0.500000 0.000000 0.500000
-0.690676 -0.548121 -0.435358 0.500000 0.500000 0.000000
0.106552 -0.305592 0.423563 0.800000 0.200000 0.500000
-0.022552 0.243461 0.396895 0.600000 0.000000 0.300000
0.075040 0.370911 0.053917 0.600000 0.000000 0.300000
-0.353749 -0.075785 0.174212 0.500000 0.000000 0.500000
0.580472 0.477585 -0.312527 0.300000 0.000000 0.600000
-0.470150 -0.102454 -0.186771 0.500000 0.000000 0.500000
-0.690676 0.179603 -0.277044 0.300000 0.600000 0.000000
0.515312 0.293760 -0.429827 0.300000 0.000000 0.600000
-0.414799 0.453139 -0.439687 0.300000 0.000000 0.600000
-0.672897 0.553683 -0.317134 0.300000 0.600000 0.000000
0.659472 -0.092104 0.396895 0.800000 0.200000 0.500000
0.606509 0.471349 0.396895 0.000000 0.500000 0.500000
0.672461 0.291631 0.423563 0.800000 0.200000 0.500000
-0.361597 -0.462478 0.318930 0.600000 0.300000 0.000000
0.266375 -0.630893 -0.456495 0.800000 0.200000 0.500000
-0.110637 0.414153 0.248930 0.000000 0.000000 1.000000
-0.065472 -0.102454 -0.299519 0.500000 0.000000 0.500000
-0.264344 0.383789 0.370227 0.600000 0.000000 0.300000
-0.089297 0.233410 -0.416492 0.300000 0.000000 0.600000
-0.173290 0.108442 0.396895 0.300000 0.000000 0.600000
0.098266 0.440062 -0.081373 0.600000 0.000000 0.300000
-0.672897 0.078849 -0.264840 0.300000 0.600000 0.000000
0.678304 -0.530838 0.254888 0.000000 1.000000 0.000000
-0.390107 0.258797 0.396895 0.300000 0.000000 0.600000
-0.003417 0.491508 -0.429827 0.300000 0.000000 0.600000
0.011363 0.265562 0.423563 0.800000 0.200000 0.500000
0.660525 -0.484615 -0.226754 0.000000 0.500000 0.500000
-0.690676 0.010635 -0.129086 0.300000 0.600000 0.000000
0.649668 -0.102454 0.044689 0.500000 0.000000 0.500000
0.660525 -0.022588 0.315429 0.000000 0.500000 0.500000
0.057504 0.353231 0.423563 0.000000 0.500000 0.500000
0.519924 -0.464185 0.396895 0.600000 0.000000 0.300000
-0.470627 -0.462478 0.121307 0.600000 0.300000 0.000000
-0.091799 -0.462478 0.316670 0.600000 0.300000 0.000000
-0.274705 0.258772 0.396895 0.300000 0.000000 0.600000
-0.672897 0.360110 0.224727 0.300000 0.600000 0.000000
-0.619227 0.533144 -0.053351 0.600000 0.000000 0.300000
0.496728 0.395357 -0.121733 0.600000 0.300000 0.000000
-0.157448 -0.462478 -0.341761 0.600000 0.300000 0.000000
-0.177409 -0.075785 -0.186326 0.500000 0.000000 0.500000
-0.458321 -0.096611 0.423563 0.300000 0.000000 0.600000
-0.621782 0.462722 -0.083928 0.800000 0.200000 0.500000
-0.620839 0.360143 0.396895 0.600000 0.000000 0.300000
0.660525 0.310242 0.027589 0.000000 0.500000 0.500000
0.660525 0.555493 0.166721 0.000000 0.500000 0.500000
0.635582 -0.034350 0.370227 0.600000 0.000000 0.300000
-0.324710 0.388690 0.036754 0.000000 1.000000 0.000000
0.047457 0.483140 -0.416492 0.300000 0.000000 0.600000
-0.672897 -0.172273 0.074570 0.300000 0.600000 0.000000
0.098266 0.460874 0.350942 0.600000 0.000000 0.300000
-0.359266 -0.102454 0.275581 0.500000 0.000000 0.500000
0.216150 -0.075785 -0.221332 0.500000 0.000000 0.500000
0.342223 -0.462478 0.274442 0.600000 0.300000 0.000000
-0.646228 -0.079200 0.376717 0.600000 0.000000 0.300000
-0.464073 0.395357 0.268668 0.000000 1.000000 0.000000
0.014538 -0.462478 0.342556 0.600000 0.300000 0.000000
-0.646228 0.266740 0.373655 0.600000 0.000000 0.300000
0.609411 0.454262 -0.032708 0.300000 0.600000 0.000000
-0.492166 0.388690 0.143460 0.000000 1.000000 0.000000
-0.521407 -0.462478 -0.201800 0.600000 0.300000 0.000000
-0.387391 0.430707 0.370227 0.600000 0.000000 0.300000
-0.471543 -0.072859 0.396895 0.300000 0.000000 0.600000
0.283977 -0.075785 0.031770 0.500000 0.000000 0.500000
-0.664530 0.210299 0.423563 0.300000 0.000000 0.600000
0.043451 -0.102454 -0.323014 0.500000 0.000000 0.500000
-0.618883 0.533144 0.324157 0.600000 0.000000 0.300000
0.174259 -0.102454 -0.280746 0.500000 0.000000 0.500000
0.582742 0.422403 0.017163 0.300000 0.600000 0.000000
-0.372007 -0.102454 0.349537 0.500000 0.000000 0.500000
0.678304 0.236183 0.358222 0.000000 0.500000 0.500000
0.523421 -0.102454 0.173181 0.500000 0.000000 0.500000
-0.449209 0.144216 -0.429827 0.300000 0.000000 0.600000
0.217810 -0.075785 -0.000760 0.500000 0.000000 0.500000
-0.537796 -0.603137 -0.456495 0.800000 0.200000 0.500000
-0.187650 -0.075785 -0.135344 0.500000 0.000000 0.500000
-0.428019 0.370911 0.371195 0.600000 0.000000 0.300000
0.259322 -0.449827 -0.429827 0.300000 0.000000 0.600000
-0.610384 0.515365 0.187833 0.600000 0.000000 0.300000
-0.577691 -0.443586 0.396895 0.300000 0.000000 0.600000
-0.699565 -0.018774 0.371792 0.600000 0.000000 0.300000
-0.460959 -0.462478 -0.032989 0.600000 0.300000 0.000000
0.606104 -0.092567 0.396895 0.800000 0.200000 0.500000
0.016321 0.105164 0.370227 0.600000 0.000000 0.300000
0.321352 -0.462478 -0.314254 0.600000 0.300000 0.000000
0.052163 -0.211141 0.423563 0.800000 0.200000 0.500000
0.171822 -0.293159 0.423563 0.800000 0.200000 0.500000
0.232159 -0.075785 -0.058844 0.500000 0.000000 0.500000
0.100039 -0.075785 0.346751 0.500000 0.000000 0.500000
0.660525 0.450614 0.098963 0.000000 0.500000 0.500000
0.349769 0.387835 -0.416492 0.300000 0.000000 0.600000
0.544327 0.456881 -0.416492 0.300000 0.000000 0.600000
0.052099 0.326929 -0.416492 0.300000 0.000000 0.600000
0.240126 0.405664 0.370227 0.000000 0.500000 0.500000
0.199530 0.388690 0.073406 0.600000 0.300000 0.000000
0.528281 0.328686 0.372929 0.600000 0.000000 0.300000
-0.113830 0.555320 0.396895 0.600000 0.000000 0.300000
-0.604319 -0.231526 0.396895 0.300000 0.000000 0.600000
-0.621782 0.475975 -0.037998 0.800000 0.200000 0.500000
0.660525 -0.420416 0.100532 0.000000 0.500000 0.500000
0.205289 0.395357 -0.023467 0.600000 0.300000 0.000000
-0.309096 -0.006002 0.396895 0.300000 0.000000 0.600000
-0.624248 0.533144 0.141907 0.600000 0.000000 0.300000
-0.143119 -0.102454 -0.176354 0.500000 0.000000 0.500000
0.300337 -0.056517 0.423563 0.800000 0.200000 0.500000
0.660525 0.378632 0.368988 0.000000 0.500000 0.500000
-0.035637 -0.146287 -0.429827 0.300000 0.000000 0.600000
-0.026269 0.377518 0.370227 0.600000 0.000000 0.300000
0.322927 -0.102454 0.357019 0.500000 0.000000 0.500000
0.071841 -0.102454 -0.389356 0.500000 0.000000 0.500000
0.354892 0.395357 -0.138444 0.600000 0.300000 0.000000
-0.397121 0.373870 0.370227 0.600000 0.000000 0.300000
-0.072939 0.102998 -0.416492 0.300000 0.000000 0.600000
-0.317949 0.123571 -0.416492 0.300000 0.000000 0.600000
-0.569535 -0.533132 0.285777 0.500000 0.000000 0.500000
-0.534220 -0.075785 -0.129871 0.500000 0.000000 0.500000
-0.012853 -0.155088 0.416226 0.300000 0.000000 0.600000
0.525932 0.389564 -0.314263 0.300000 0.000000 0.600000
0.159181 0.381402 -0.287595 0.300000 0.000000 0.600000
-0.690676 0.154668 -0.350314 0.300000 0.600000 0.000000
0.421700 -0.371848 0.423563 0.800000 0.200000 0.500000
-0.672897 0.457633 0.358205 0.300000 0.600000 0.000000
0.332913 0.477585 0.396321 0.000000 0.500000 0.500000
-0.234663 -0.102454 0.011044 0.500000 0.000000 0.500000
0.357668 -0.634855 0.285777 0.500000 0.000000 0.500000
0.030412 0.440680 -0.416492 0.300000 0.000000 0.600000
0.660525 -0.132511 -0.163336 0.000000 0.500000 0.500000
-0.225002 0.275349 0.376683 0.600000 0.000000 0.300000
0.098266 0.466027 0.310586 0.600000 0.000000 0.300000
-0.690676 -0.652262 -0.103385 0.500000 0.500000 0.000000
-0.287962 0.454335 -0.314263 1.000000 0.000000 0.000000
-0.595114 0.450955 -0.196629 0.800000 0.200000 0.500000
0.226718 0.084507 0.396895 0.800000 0.200000 0.500000
-0.686549 -0.026657 0.396895 0.600000 0.000000 0.300000
0.013491 -0.102454 -0.048720 0.500000 0.000000 0.500000
0.582742 0.406046 -0.178005 0.300000 0.600000 0.000000
0.601681 -0.036954 0.396895 0.800000 0.200000 0.500000
-0.504874 0.286961 0.396895 0.300000 0.000000 0.600000
-0.384218 -0.462478 -0.266147 0.600000 0.300000 0.000000
0.368526 -0.462478 0.140183 0.600000 0.300000 0.000000
0.412833 -0.450314 -0.429827 0.300000 0.000000 0.600000
0.304425 0.388690 0.286173 0.600000 0.300000 0.000000
0.037846 -0.075785 -0.393887 0.500000 0.000000 0.500000
0.678304 -0.661049 0.012166 0.000000 1.000000 0.000000
-0.502513 -0.102454 -0.107614 0.500000 0.000000 0.500000
-0.513952 -0.228305 0.423563 0.300000 0.000000 0.600000
0.516563 -0.075785 0.274304 0.500000 0.000000 0.500000
0.122531 0.397254 0.396895 0.000000 0.500000 0.500000
0.546088 0.255258 0.423563 0.800000 0.200000 0.500000
-0.672897 0.070286 0.180773 0.300000 0.600000 0.000000
0.513614 -0.102454 0.108566 0.500000 0.000000 0.500000
0.449834 0.325660 -0.416492 0.300000 0.000000 0.600000
0.211207 -0.302557 0.396895 0.800000 0.200000 0.500000
0.307055 0.299650 0.370227 0.600000 0.000000 0.300000
0.597305 -0.075785 -0.162764 0.500000 0.000000 0.500000
0.072875 0.370911 0.138918 0.600000 0.000000 0.300000
-0.062870 0.132545 0.423563 0.300000 0.000000 0.600000
0.525567 0.206022 0.423563 0.800000 0.200000 0.500000
0.327208 0.459641 -0.416492 0.300000 0.000000 0.600000
-0.594369 -0.075785 0.084867 0.500000 0.000000 0.500000
0.515446 0.395357 0.369320 0.600000 0.300000 0.000000
-0.672897 -0.016355 -0.068381 0.300000 0.600000 0.000000
-0.289816 -0.462478 0.246274 0.600000 0.300000 0.000000
0.640102 -0.075785 -0.007349 0.500000 0.000000 0.500000
0.377918 0.035157 0.423563 0.800000 0.200000 0.500000
-0.032244 -0.462478 0.230794 0.600000 0.300000 0.000000
0.678304 -0.542270 -0.272809 0.000000 1.000000 0.000000
0.605102 0.370911 0.321328 0.300000 0.600000 0.000000
0.220626 -0.214028 0.423563 0.800000 0.200000 0.500000
-0.428061 -0.367835 0.396895 0.300000 0.000000 0.600000
-0.121985 0.127663 0.423563 0.300000 0.000000 0.600000
-0.672897 -0.427186 0.083029 0.300000 0.600000 0.000000
0.133017 0.388690 -0.021596 0.600000 0.300000 0.000000
-0.317134 -0.156171 0.396895 0.300000 0.000000 0.600000
-0.027399 -0.102454 0.202564 0.500000 0.000000 0.500000
-0.386585 -0.622457 0.285777 0.500000 0.000000 0.500000
-0.632062 0.051594 0.423563 0.300000 0.000000 0.600000
0.609673 -0.373542 0.396895 0.800000 0.200000 0.500000
-0.295134 0.091037 -0.429827 0.300000 0.000000 0.600000
0.043985 -0.075785 -0.357365 0.500000 0.000000 0.500000
0.584650 -0.075785 -0.353835 0.500000 0.000000 0.500000
0.375448 -0.102454 -0.345044 0.500000 0.000000 0.500000
0.570058 0.381530 0.423563 0.000000 0.500000 0.500000
-0.452669 -0.029349 0.423563 0.300000 0.000000 0.600000
0.678304 0.522393 -0.336366 0.000000 0.500000 0.500000
-0.260798 0.296898 -0.429827 0.300000 0.000000 0.600000
-0.435210 0.048897 -0.416492 0.300000 0.000000 0.600000
-0.463749 0.217173 0.396895 0.300000 0.000000 0.600000
-0.555678 -0.626950 -0.456495 0.800000 0.200000 0.500000
0.386297 -0.227751 0.396895 0.800000 0.200000 0.500000
-0.387432 -0.048559 0.423563 0.300000 0.000000 0.600000
0.678304 0.165317 -0.351423 0.000000 0.500000 0.500000
-0.443871 0.388690 0.070547 0.000000 1.000000 0.000000
-0.247646 -0.075785 -0.299420 0.500000 0.000000 0.500000
0.660525 -0.108139 -0.294776 0.000000 0.500000 0.500000
-0.199739 -0.426279 0.396895 0.300000 0.000000 0.600000
-0.690676 -0.146658 -0.004526 0.300000 0.600000 0.000000
-0.445130 -0.075785 -0.347414 0.500000 0.000000 0.500000
-0.052481 -0.071167 0.396895 0.300000 0.000000 0.600000
0.678304 -0.639964 -0.269151 0.000000 1.000000 0.000000
-0.039886 0.387092 -0.429827 0.300000 0.000000 0.600000
-0.079481 -0.075785 -0.306301 0.500000 0.000000 0.500000
0.609411 0.438642 0.032075 0.300000 0.600000 0.000000
-0.066182 -0.371143 -0.416492 0.300000 0.000000 0.600000
-0.394881 -0.102454 0.145286 0.500000 0.000000 0.500000
0.678304 0.247212 -0.436853 0.000000 0.500000 0.500000
-0.690676 0.224718 -0.410129 0.300000 0.600000 0.000000
-0.448952 -0.347758 0.423563 0.300000 0.000000 0.600000
-0.308933 -0.567058 -0.456495 0.800000 0.200000 0.500000
0.678304 0.275224 0.030816 0.000000 0.500000 0.500000
0.609213 -0.102454 -0.299690 0.500000 0.000000 0.500000
0.678304 -0.419633 -0.030190 0.000000 0.500000 0.500000
-0.157103 0.465946 0.396895 0.600000 0.000000 0.300000
-0.143787 -0.075785 0.037833 0.500000 0.000000 0.500000
-0.528593 -0.102454 -0.163491 0.500000 0.000000 0.500000
-0.324550 -0.404918 0.396895 0.300000 0.000000 0.600000
0.071597 0.454645 -0.141049 0.600000 0.000000 0.300000
0.358425 0.496919 -0.429827 0.300000 0.000000 0.600000
0.244665 0.246816 0.423563 0.800000 0.200000 0.500000
-0.672897 0.487390 -0.245781 0.300000 0.600000 0.000000
0.133870 -0.432375 0.396895 0.800000 0.200000 0.500000
-0.621782 0.409846 -0.058197 0.800000 0.200000 0.500000
-0.690676 -0.301119 0.019573 0.300000 0.600000 0.000000
-0.589720 0.085245 -0.416492 0.300000 0.000000 0.600000
-0.663898 -0.102454 0.215699 0.500000 0.000000 0.500000
0.660525 -0.319057 -0.008920 0.000000 0.500000 0.500000
0.300168 0.134793 -0.429827 0.300000 0.000000 0.600000
0.660525 0.050321 0.074789 0.000000 0.500000 0.500000
0.365492 -0.359918 -0.416492 0.300000 0.000000 0.600000
0.553852 0.525171 -0.166535 0.300000 0.000000 0.600000
-0.157396 -0.102454 -0.370302 0.500000 0.000000 0.500000
-0.672897 -0.292907 -0.100213 0.300000 0.600000 0.000000
-0.327144 -0.075785 0.127310 0.500000 0.000000 0.500000
0.660525 -0.492523 -0.166196 0.000000 0.500000 0.500000
0.018894 -0.075785 -0.190023 0.500000 0.000000 0.500000
0.171352 -0.581972 0.285777 0.500000 0.000000 0.500000
-0.207025 0.418812 -0.314263 1.000000 0.000000 0.000000
-0.466548 -0.406284 -0.429827 0.300000 0.000000 0.600000
0.151369 -0.076072 0.370227 0.500000 0.000000 0.500000
-0.083969 0.428841 -0.050704 0.000000 0.000000 1.000000
-0.254988 -0.552092 -0.456495 0.800000 0.200000 0.500000
-0.366048 0.388690 0.042393 0.000000 1.000000 0.000000
-0.432706 -0.075785 -0.319341 0.500000 0.000000 0.500000
-0.303251 -0.075785 -0.189290 0.500000 0.000000 0.500000
-0.672897 -0.189400 -0.149583 0.300000 0.600000 0.000000
-0.134253 0.470857 0.423563 0.600000 0.000000 0.300000
-0.672897 -0.027486 -0.379876 0.300000 0.600000 0.000000
-0.545431 0.326289 0.396895 0.600000 0.000000 0.300000
0.613168 -0.071372 0.423563 0.800000 0.200000 0.500000
0.490618 0.388690 0.090667 0.600000 0.300000 0.000000
-0.534399 -0.075785 -0.313063 0.500000 0.000000 0.500000
0.130359 -0.075785 -0.160060 0.500000 0.000000 0.500000
0.678304 -0.049415 -0.242803 0.000000 0.500000 0.500000
-0.207821 -0.474691 0.396895 0.300000 0.000000 0.600000
-0.474939 0.370911 -0.293699 1.000000 0.000000 0.000000
0.449281 -0.102454 -0.406816 0.500000 0.000000 0.500000
0.660525 0.529583 -0.399422 0.000000 0.500000 0.500000
-0.138103 -0.075785 0.162833 0.500000 0.000000 0.500000
-0.342839 0.404728 0.370227 0.600000 0.000000 0.300000
-0.310914 0.245883 0.396895 0.300000 0.000000 0.600000
0.619934 -0.462478 -0.170521 0.600000 0.300000 0.000000
0.382748 -0.458033 -0.443890 0.800000 0.200000 0.500000
0.660525 0.331019 0.267993 0.000000 0.500000 0.500000
-0.464284 0.408768 0.370227 0.600000 0.000000 0.300000
0.609411 0.452395 -0.302708 0.300000 0.600000 0.000000
-0.690676 0.447047 -0.154382 0.300000 0.600000 0.000000
-0.690676 0.086263 0.258202 0.300000 0.600000 0.000000
0.113679 -0.462478 0.273680 0.600000 0.300000 0.000000
-0.398874 -0.102454 -0.109075 0.500000 0.000000 0.500000
-0.083969 0.437218 0.227726 0.000000 0.000000 1.000000
-0.267606 -0.462478 -0.188741 0.600000 0.300000 0.000000
-0.118175 0.386174 0.423563 0.600000 0.000000 0.300000
-0.672897 0.063986 -0.288555 0.300000 0.600000 0.000000
0.667205 0.217409 0.423563 0.800000 0.200000 0.500000
-0.144879 0.395357 -0.165452 0.000000 1.000000 0.000000
-0.058686 -0.221170 0.370227 0.600000 0.000000 0.300000
0.678304 -0.382595 0.261465 0.000000 0.500000 0.500000
-0.156357 -0.102454 0.192989 0.500000 0.000000 0.500000
-0.657467 0.456425 -0.429827 0.300000 0.000000 0.600000
0.306519 -0.458033 -0.447842 0.800000 0.200000 0.500000
0.269390 0.302217 -0.429827 0.300000 0.000000 0.600000
0.678304 -0.579191 -0.428686 0.000000 1.000000 0.000000
-0.671934 -0.224205 0.370227 0.600000 0.000000 0.300000
0.191491 0.442353 -0.287595 0.300000 0.000000 0.600000
-0.555130 -0.102454 0.231885 0.500000 0.000000 0.500000
0.625997 0.515365 0.323717 0.300000 0.000000 0.600000
0.568787 -0.102454 0.007445 0.500000 0.000000 0.500000
-0.672897 -0.170636 0.276808 0.300000 0.600000 0.000000
0.678304 -0.496162 -0.443072 0.000000 0.500000 0.500000
-0.566020 0.435588 -0.287595 1.000000 0.000000 0.000000
0.678304 -0.233123 -0.450934 0.000000 0.500000 0.500000
0.123952 -0.102454 0.346573 0.500000 0.000000 0.500000
0.524722 0.500539 0.423563 0.000000 0.500000 0.500000
0.660525 0.492662 0.211917 0.000000 0.500000 0.500000
-0.054076 -0.654811 0.285777 0.500000 0.000000 0.500000
0.678304 -0.193949 -0.179385 0.000000 0.500000 0.500000
0.479804 -0.400689 0.423563 0.800000 0.200000 0.500000
-0.225828 -0.462478 0.258878 0.600000 0.300000 0.000000
-0.556866 -0.075785 -0.151986 0.500000 0.000000 0.500000
-0.438447 -0.075785 -0.403721 0.500000 0.000000 0.500000
-0.672897 0.294099 -0.359983 0.300000 0.600000 0.000000
0.246834 -0.009826 0.423563 0.800000 0.200000 0.500000
-0.091275 -0.102454 0.058904 0.500000 0.000000 0.500000
0.071597 0.419078 0.109909 0.600000 0.000000 0.300000
-0.321510 -0.455065 0.370227 0.600000 0.000000 0.300000
0.368804 0.395357 0.360519 0.600000 0.300000 0.000000
-0.690676 0.014627 0.347322 0.300000 0.600000 0.000000
0.047807 0.534658 0.370227 0.600000 0.000000 0.300000
-0.455463 -0.102454 -0.292822 0.500000 0.000000 0.500000
-0.672897 -0.481256 0.097696 0.300000 0.600000 0.000000
-0.690676 -0.003155 -0.314508 0.300000 0.600000 0.000000
-0.130411 0.275476 0.396895 0.600000 0.000000 0.300000
0.306822 -0.075785 -0.044556 0.500000 0.000000 0.500000
-0.079192 -0.154277 -0.429827 0.300000 0.000000 0.600000
0.339369 -0.321280 -0.416492 0.300000 0.000000 0.600000
-0.108437 0.414978 0.396895 0.600000 0.000000 0.300000
-0.438572 -0.326842 -0.429827 0.300000 0.000000 0.600000
0.282053 -0.075785 0.360367 0.500000 0.000000 0.500000
0.117574 0.395357 0.159032 0.600000 0.300000 0.000000
-0.071974 -0.411522 -0.429827 0.300000 0.000000 0.600000
-0.669548 0.153196 -0.429827 0.300000 0.000000 0.600000
-0.074879 0.170422 0.476236 0.600000 0.000000 0.300000
-0.174909 -0.260443 -0.429827 0.300000 0.000000 0.600000
0.000481 0.497914 0.421262 0.000000 0.500000 0.500000
-0.672611 0.480156 -0.429827 0.300000 0.000000 0.600000
0.251840 -0.102454 0.067600 0.500000 0.000000 0.500000
-0.672897 -0.351217 -0.452582 0.300000 0.600000 0.000000
0.678304 -0.279248 -0.097688 0.000000 0.500000 0.500000
0.344568 -0.075785 -0.258598 0.500000 0.000000 0.500000
-0.672897 -0.201978 -0.052892 0.300000 0.600000 0.000000
0.395382 -0.391502 0.396895 0.800000 0.200000 0.500000
0.584028 0.535952 -0.456495 0.300000 0.000000 0.600000
-0.019581 0.535467 0.396895 0.600000 0.000000 0.300000
0.278449 0.388690 -0.155959 0.600000 0.300000 0.000000
0.466666 -0.229300 0.423563 0.800000 0.200000 0.500000
-0.690676 -0.078842 0.323307 0.300000 0.600000 0.000000
-0.672897 0.192734 0.114652 0.300000 0.600000 0.000000
0.110870 0.477585 0.372705 0.000000 0.500000 0.500000
-0.339342 -0.108392 -0.429827 0.300000 0.000000 0.600000
0.408215 -0.075785 0.229975 0.500000 0.000000 0.500000
0.609411 0.404068 -0.201911 0.300000 0.600000 0.000000
0.549878 0.224953 0.396895 0.800000 0.200000 0.500000
-0.670807 0.315377 0.396895 0.600000 0.000000 0.300000
-0.037093 -0.462478 0.113237 0.600000 0.300000 0.000000
0.166110 -0.462478 0.181027 0.600000 0.300000 0.000000
-0.638156 0.533144 -0.175754 0.600000 0.000000 0.300000
-0.200724 0.083772 -0.429827 0.300000 0.000000 0.600000
-0.690676 0.243536 0.022344 0.300000 0.600000 0.000000
0.522070 0.009453 0.423563 0.800000 0.200000 0.500000
-0.672897 0.118099 0.229967 0.300000 0.600000 0.000000
0.678304 -0.440915 0.008727 0.000000 0.500000 0.500000
-0.353458 0.405021 -0.287595 1.000000 0.000000 0.000000
0.625472 0.515365 0.293953 0.300000 0.000000 0.600000
-0.110637 0.372271 0.116131 0.000000 0.000000 1.000000
-0.079505 -0.102454 -0.259715 0.500000 0.000000 0.500000
-0.007294 -0.394184 0.396895 0.600000 0.000000 0.300000
0.660525 0.362281 -0.118226 0.000000 0.500000 0.500000
0.678304 -0.363672 -0.110850 0.000000 0.500000 0.500000
-0.672897 0.051180 -0.229892 0.300000 0.600000 0.000000
-0.088490 0.477585 0.257807 0.000000 0.000000 1.000000
-0.598076 -0.556786 0.285777 0.500000 0.000000 0.500000
-0.196747 0.054332 -0.416492 0.300000 0.000000 0.600000
0.640677 -0.006027 0.396895 0.800000 0.200000 0.500000
-0.167462 0.374372 -0.314263 1.000000 0.000000 0.000000
0.327514 -0.651435 0.285777 0.500000 0.000000 0.500000
0.249001 0.089982 0.423563 0.800000 0.200000 0.500000
0.660525 -0.006522 -0.303244 0.000000 0.500000 0.500000
-0.621782 0.401308 0.165324 0.800000 0.200000 0.500000
-0.672897 -0.205939 0.337727 0.300000 0.600000 0.000000
-0.385575 0.394217 0.396895 0.600000 0.000000 0.300000
-0.460426 -0.206662 -0.416492 0.300000 0.000000 0.600000
-0.184870 -0.557902 -0.456495 0.800000 0.200000 0.500000
0.345495 -0.042412 -0.416492 0.300000 0.000000 0.600000
-0.416803 0.110789 -0.429827 0.300000 0.000000 0.600000
-0.672897 0.298466 -0.298745 0.300000 0.600000 0.000000
-0.100948 -0.200640 -0.416492 0.300000 0.000000 0.600000
-0.221417 0.559812 -0.439441 0.300000 0.000000 0.600000
-0.231051 0.439891 0.467519 0.300000 0.000000 0.600000
0.567193 0.533144 0.036347 0.300000 0.000000 0.600000
0.687194 0.118951 0.372111 0.600000 0.000000 0.300000
0.660525 0.376965 -0.363064 0.000000 0.500000 0.500000
-0.464399 -0.462478 0.343056 0.600000 0.300000 0.000000
-0.368312 0.395357 -0.123648 0.000000 1.000000 0.000000
-0.458932 0.441817 0.370227 0.600000 0.000000 0.300000
0.675583 -0.013656 0.370227 0.600000 0.000000 0.300000
-0.024115 0.242285 -0.416492 0.300000 0.000000 0.600000
0.384622 0.395357 0.147251 0.600000 0.300000 0.000000
-0.110637 0.450282 0.113042 0.000000 0.000000 1.000000
0.472060 0.460496 -0.314263 0.300000 0.000000 0.600000
0.660525 0.269940 -0.256429 0.000000 0.500000 0.500000
-0.648609 0.515365 -0.153867 0.600000 0.000000 0.300000
-0.383985 0.388690 0.302465 0.000000 1.000000 0.000000
-0.672897 0.187212 -0.331555 0.300000 0.600000 0.000000
-0.577313 -0.102454 -0.046515 0.500000 0.000000 0.500000
0.006833 -0.102454 -0.262000 0.500000 0.000000 0.500000
0.586021 -0.208322 0.396895 0.800000 0.200000 0.500000
-0.226021 0.311607 0.396895 0.600000 0.000000 0.300000
-0.492900 -0.075785 0.260847 0.500000 0.000000 0.500000
0.071597 0.419519 -0.033584 0.600000 0.000000 0.300000
-0.160939 0.395357 0.340712 0.000000 1.000000 0.000000
-0.334718 -0.075785 0.362119 0.500000 0.000000 0.500000
-0.150956 0.388690 0.118243 0.000000 1.000000 0.000000
0.660525 -0.004160 0.272552 0.000000 0.500000 0.500000
0.236465 0.388690 0.036184 0.600000 0.300000 0.000000
-0.196836 -0.102454 -0.244470 0.500000 0.000000 0.500000
0.007764 -0.061857 -0.416492 0.300000 0.000000 0.600000
0.606965 -0.340489 0.423563 0.800000 0.200000 0.500000
0.057037 -0.102454 -0.118221 0.500000 0.000000 0.500000
-0.064657 0.013494 0.396895 0.300000 0.000000 0.600000
-0.285164 -0.102454 -0.322913 0.500000 0.000000 0.500000
0.623954 0.515365 -0.370549 0.300000 0.000000 0.600000
-0.672897 -0.243718 0.345125 0.300000 0.600000 0.000000
-0.027287 -0.169566 0.370227 0.600000 0.000000 0.300000
-0.204835 0.396883 0.423563 0.600000 0.000000 0.300000
0.564486 -0.102454 -0.157992 0.500000 0.000000 0.500000
0.596309 0.370911 -0.306808 0.300000 0.600000 0.000000
-0.413504 -0.075785 0.217181 0.500000 0.000000 0.500000
0.678304 0.521803 -0.278698 0.000000 0.500000 0.500000
0.478712 0.477585 -0.292129 0.300000 0.000000 0.600000
0.627132 0.506559 0.396895 0.000000 0.500000 0.500000
-0.690676 -0.259681 0.205179 0.300000 0.600000 0.000000
-0.439865 -0.486746 0.285777 0.500000 0.000000 0.500000
0.160707 0.388690 0.018862 0.600000 0.300000 0.000000
-0.672897 0.221853 0.086231 0.300000 0.600000 0.000000
0.474220 -0.102454 -0.250632 0.500000 0.000000 0.500000
-0.672897 0.109113 -0.199479 0.300000 0.600000 0.000000
0.286544 -0.247863 0.396895 0.800000 0.200000 0.500000
-0.073699 -0.075785 0.194754 0.500000 0.000000 0.500000
-0.672897 -0.320933 0.142655 0.300000 0.600000 0.000000
0.660525 0.056119 0.116178 0.000000 0.500000 0.500000
-0.370377 -0.073318 0.423563 0.300000 0.000000 0.600000
-0.291436 0.395357 -0.078580 0.000000 1.000000 0.000000
-0.571525 0.017897 -0.429827 0.300000 0.000000 0.600000
0.678304 0.215056 -0.150799 0.000000 0.500000 0.500000
-0.336274 -0.102454 -0.205478 0.500000 0.000000 0.500000
-0.053409 0.265296 0.423563 0.300000 0.000000 0.600000
0.475956 0.518126 0.396895 0.600000 0.000000 0.300000
-0.672897 0.118670 -0.375047 0.300000 0.600000 0.000000
-0.493330 0.429432 -0.429827 0.300000 0.000000 0.600000
0.062468 0.309183 0.423563 0.000000 0.500000 0.500000
0.032836 -0.141697 0.396895 0.600000 0.000000 0.300000
-0.528926 0.260985 0.396895 0.300000 0.000000 0.600000
0.055998 -0.498486 -0.456495 0.800000 0.200000 0.500000
0.660525 -0.203429 -0.250595 0.000000 0.500000 0.500000
-0.554674 0.377178 0.423563 0.600000 0.000000 0.300000
0.660525 0.320262 -0.353628 0.000000 0.500000 0.500000
0.560110 0.123518 0.423563 0.800000 0.200000 0.500000
0.027999 -0.102454 0.074409 0.500000 0.000000 0.500000
-0.597341 -0.490960 0.285777 0.500000 0.000000 0.500000
0.154014 0.395357 -0.226838 0.600000 0.300000 0.000000
0.574128 -0.596353 0.285777 0.500000 0.000000 0.500000
0.660525 0.134813 0.252812 0.000000 0.500000 0.500000
-0.007123 0.032965 -0.416492 0.300000 0.000000 0.600000
-0.690676 0.540441 0.029830 0.300000 0.600000 0.000000
0.576482 -0.102454 -0.087961 0.500000 0.000000 0.500000
-0.690676 -0.303231 0.196854 0.300000 0.600000 0.000000
0.515395 0.388690 0.304599 0.600000 0.300000 0.000000
0.678304 -0.350993 -0.408558 0.000000 0.500000 0.500000
0.108920 0.084558 -0.416492 0.300000 0.000000 0.600000
-0.208069 -0.102454 0.248535 0.500000 0.000000 0.500000
0.678304 -0.079106 -0.376910 0.000000 0.500000 0.500000
-0.024099 0.051030 0.396895 0.300000 0.000000 0.600000
0.678304 0.118271 0.345421 0.000000 0.500000 0.500000
-0.696440 -0.205243 0.370227 0.600000 0.000000 0.300000
-0.530673 -0.431150 -0.429827 1.000000 0.000000 0.000000
-0.672897 0.244769 -0.173105 0.300000 0.600000 0.000000
0.372894 -0.575868 -0.456495 0.800000 0.200000 0.500000
-0.028481 -0.075785 0.134561 0.500000 0.000000 0.500000
0.660525 0.286791 0.181824 0.000000 0.500000 0.500000
-0.505351 0.395357 -0.220071 0.000000 1.000000 0.000000
-0.672897 0.404737 -0.173807 0.300000 0.600000 0.000000
0.619831 -0.075785 -0.315713 0.500000 0.000000 0.500000
0.381671 -0.102454 0.079135 0.500000 0.000000 0.500000
-0.690676 0.168799 0.267342 0.300000 0.600000 0.000000
0.678304 0.501753 -0.163195 0.000000 0.500000 0.500000
0.024065 0.217644 0.423563 0.800000 0.200000 0.500000
0.660525 0.117623 -0.123557 0.000000 0.500000 0.500000
0.142414 -0.102454 -0.198171 0.500000 0.000000 0.500000
0.118641 0.047066 0.396895 0.800000 0.200000 0.500000
0.660525 0.206136 -0.304715 0.000000 0.500000 0.500000
0.071319 -0.462478 -0.026573 0.600000 0.300000 0.000000
0.660525 0.466233 -0.108122 0.000000 0.500000 0.500000
-0.291830 -0.075785 0.193726 0.500000 0.000000 0.500000
0.431114 0.135504 0.396895 0.800000 0.200000 0.500000
0.115689 -0.062858 -0.416492 0.300000 0.000000 0.600000
0.288658 -0.102454 -0.331359 0.500000 0.000000 0.500000
-0.397404 0.474389 0.423563 0.600000 0.000000 0.300000
-0.353943 -0.462478 -0.113276 0.600000 0.300000 0.000000
-0.662692 -0.383609 0.396895 0.600000 0.000000 0.300000
0.353958 -0.344219 0.423563 0.800000 0.200000 0.500000
-0.540549 0.388690 0.322685 0.000000 1.000000 0.000000
-0.209083 0.420977 0.471108 0.300000 0.000000 0.600000
-0.115587 0.395357 0.203575 0.000000 1.000000 0.000000
0.667917 -0.212577 0.370227 0.600000 0.000000 0.300000
0.649131 -0.075785 0.331357 0.500000 0.000000 0.500000
0.072776 0.064091 -0.429827 0.300000 0.000000 0.600000
-0.087441 -0.030188 -0.416492 0.300000 0.000000 0.600000
-0.614851 -0.483638 0.396895 0.600000 0.000000 0.300000
0.071597 0.431416 -0.278965 0.600000 0.000000 0.300000
0.259037 -0.462478 0.110291 0.600000 0.300000 0.000000
-0.557053 -0.582902 0.285777 0.500000 0.000000 0.500000
0.660525 0.549979 -0.110022 0.000000 0.500000 0.500000
-0.061773 -0.317561 0.396895 0.300000 0.000000 0.600000
-0.303900 0.188050 0.396895 0.300000 0.000000 0.600000
-0.672897 -0.373625 -0.371713 0.300000 0.600000 0.000000
-0.634723 -0.075785 0.222014 0.500000 0.000000 0.500000
-0.238342 -0.102454 0.335880 0.500000 0.000000 0.500000
0.170395 -0.205798 0.396895 0.800000 0.200000 0.500000
-0.324348 0.388690 0.228479 0.000000 1.000000 0.000000
0.660525 -0.070547 0.212736 0.000000 0.500000 0.500000
-0.006536 -0.075785 0.081569 0.500000 0.000000 0.500000
0.062426 0.282544 0.396895 0.800000 0.200000 0.500000
-0.418873 -0.102454 0.352656 0.500000 0.000000 0.500000
0.596527 -0.506925 0.388904 0.600000 0.000000 0.300000
-0.690676 -0.476703 -0.345226 0.300000 0.600000 0.000000
0.185060 -0.462478 0.233439 0.600000 0.300000 0.000000
0.660525 -0.407713 -0.074492 0.000000 0.500000 0.500000
-0.158226 0.139593 0.423563 0.300000 0.000000 0.600000
-0.398830 -0.174454 0.396895 0.300000 0.000000 0.600000
0.678304 0.317936 -0.119394 0.000000 0.500000 0.500000
0.461720 -0.075785 0.062795 0.500000 0.000000 0.500000
-0.672897 -0.188164 -0.322905 0.300000 0.600000 0.000000
0.260709 -0.397800 -0.429827 0.300000 0.000000 0.600000
0.577870 -0.075785 0.116843 0.500000 0.000000 0.500000
-0.427561 0.248124 -0.416492 0.300000 0.000000 0.600000
0.678304 -0.443141 0.222664 0.000000 0.500000 0.500000
0.601338 0.515365 -0.234788 0.300000 0.000000 0.600000
-0.381100 -0.102454 -0.009270 0.500000 0.000000 0.500000
0.678304 0.107272 -0.211856 0.000000 0.500000 0.500000
0.678304 0.480358 0.003628 0.000000 0.500000 0.500000
0.625673 0.202304 -0.416492 0.300000 0.000000 0.600000
0.514396 -0.462478 -0.033056 0.600000 0.300000 0.000000
0.084734 0.097691 -0.416492 0.300000 0.000000 0.600000
-0.512877 0.388690 0.190400 0.000000 1.000000 0.000000
-0.376765 -0.075785 -0.197045 0.500000 0.000000 0.500000
0.678304 -0.499797 0.044333 0.000000 0.500000 0.500000
0.567068 0.533144 -0.331937 0.300000 0.000000 0.600000
-0.690676 0.362109 -0.376374 0.300000 0.600000 0.000000
0.136432 -0.493122 0.285777 0.500000 0.000000 0.500000
-0.549806 -0.462478 -0.240436 0.600000 0.300000 0.000000
-0.258717 -0.206230 0.423563 0.300000 0.000000 0.600000
0.660525 -0.156818 -0.300371 0.000000 0.500000 0.500000
-0.262250 -0.620048 -0.456495 0.800000 0.200000 0.500000
0.078642 0.012432 -0.416492 0.300000 0.000000 0.600000
0.660525 -0.048570 0.338181 0.000000 0.500000 0.500000
0.488168 -0.075785 0.025797 0.500000 0.000000 0.500000
0.660525 0.162877 -0.382061 0.000000 0.500000 0.500000
0.638806 -0.090614 0.423563 0.800000 0.200000 0.500000
-0.041435 -0.473502 -0.456495 0.800000 0.200000 0.500000
0.093276 0.198945 -0.429827 0.300000 0.000000 0.600000
-0.120894 0.359673 0.396895 0.600000 0.000000 0.300000
-0.672897 0.037891 -0.405022 0.300000 0.600000 0.000000
-0.558769 -0.022045 -0.429827 0.300000 0.000000 0.600000
-0.347174 -0.462478 -0.185888 0.600000 0.300000 0.000000
0.678304 -0.503152 -0.324857 0.000000 0.500000 0.500000
0.042180 0.282022 0.370227 0.600000 0.000000 0.300000
0.410592 -0.075785 0.285487 0.500000 0.000000 0.500000
0.217083 -0.427155 0.396895 0.800000 0.200000 0.500000
0.216141 -0.102454 0.043149 0.500000 0.000000 0.500000
0.650256 0.533144 -0.039689 0.300000 0.000000 0.600000
-0.244487 -0.102454 -0.093448 0.500000 0.000000 0.500000
-0.282008 -0.000206 0.396895 0.300000 0.000000 0.600000
0.371952 0.388690 0.202821 0.600000 0.300000 0.000000
-0.029131 -0.075785 -0.104339 0.500000 0.000000 0.500000
-0.459642 -0.321556 0.423563 0.300000 0.000000 0.600000
-0.057724 -0.075785 0.139501 0.500000 0.000000 0.500000
0.657842 -0.266981 -0.416492 0.300000 0.000000 0.600000
-0.672897 -0.167692 -0.242457 0.300000 0.600000 0.000000
-0.301363 -0.075785 0.284566 0.500000 0.000000 0.500000
-0.272044 -0.075785 -0.354447 0.500000 0.000000 0.500000
-0.260517 0.525975 -0.456495 0.300000 0.000000 0.600000
0.453732 0.476753 0.396895 0.000000 0.500000 0.500000
0.000167 -0.089706 -0.429827 0.300000 0.000000 0.600000
0.077494 -0.492128 0.423563 0.800000 0.200000 0.500000
-0.118951 -0.417897 0.423563 0.300000 0.000000 0.600000
0.198989 0.374759 0.423563 0.000000 0.500000 0.500000
0.118988 0.559812 0.394251 0.600000 0.000000 0.300000
-0.285467 0.519179 0.370227 0.600000 0.000000 0.300000
-0.531868 -0.075785 0.196374 0.500000 0.000000 0.500000
0.056220 -0.071924 -0.416492 0.300000 0.000000 0.600000
0.660525 0.407665 -0.387115 0.000000 0.500000 0.500000
-0.624147 -0.462478 -0.045041 0.600000 0.300000 0.000000
-0.584542 -0.102454 0.280778 0.500000 0.000000 0.500000
-0.672897 -0.133593 0.039891 0.300000 0.600000 0.000000
-0.690676 0.301053 0.011751 0.300000 0.600000 0.000000
0.482114 -0.311337 0.423563 0.800000 0.200000 0.500000
-0.416130 -0.102454 -0.340458 0.500000 0.000000 0.500000
-0.025806 -0.246026 0.370227 0.600000 0.000000 0.300000
-0.354527 -0.249355 -0.429827 0.300000 0.000000 0.600000
0.432193 0.395357 0.188262 0.600000 0.300000 0.000000
0.609411 0.391389 -0.150396 0.300000 0.600000 0.000000
0.660525 -0.486310 -0.260516 0.000000 0.500000 0.500000
-0.690676 -0.412648 0.056662 0.300000 0.600000 0.000000
0.243872 0.388690 0.347542 0.600000 0.300000 0.000000
-0.141499 -0.462478 0.055768 0.600000 0.300000 0.000000
-0.672897 0.230135 -0.124034 0.300000 0.600000 0.000000
-0.672897 -0.303719 -0.443949 0.300000 0.600000 0.000000
0.167091 -0.462478 -0.074571 0.600000 0.300000 0.000000
0.595435 0.438441 0.433800 0.500000 0.000000 0.500000
-0.690676 -0.032243 0.253257 0.300000 0.600000 0.000000
-0.690676 -0.348423 0.089664 0.300000 0.600000 0.000000
0.484572 -0.128455 0.396895 0.800000 0.200000 0.500000
0.115502 -0.462478 0.211665 0.600000 0.300000 0.000000
-0.198957 0.328686 0.389864 0.600000 0.000000 0.300000
0.077713 -0.443946 -0.416492 0.300000 0.000000 0.600000
0.413429 -0.462478 0.089391 0.600000 0.300000 0.000000
0.273190 -0.102454 -0.354649 0.500000 0.000000 0.500000
0.071597 0.465417 0.006825 0.600000 0.000000 0.300000
-0.090283 0.375430 0.396895 0.600000 0.000000 0.300000
0.509602 -0.523336 -0.456495 0.800000 0.200000 0.500000
0.167577 -0.102454 0.209861 0.500000 0.000000 0.500000
0.660525 0.010389 -0.118257 0.000000 0.500000 0.500000
0.660525 0.478400 0.337959 0.000000 0.500000 0.500000
0.678304 -0.084392 0.034850 0.000000 0.500000 0.500000
0.308529 0.370911 0.376597 0.000000 0.500000 0.500000
-0.257541 -0.118913 -0.416492 0.300000 0.000000 0.600000
-0.137569 -0.462478 -0.121727 0.600000 0.300000 0.000000
0.563045 0.410875 0.396895 0.000000 0.500000 0.500000
-0.488451 -0.102454 -0.041444 0.500000 0.000000 0.500000
-0.672897 -0.366222 0.134941 0.300000 0.600000 0.000000
-0.117800 -0.116313 -0.416492 0.300000 0.000000 0.600000
-0.558994 -0.075785 0.140805 0.500000 0.000000 0.500000
0.034254 0.011066 -0.416492 0.300000 0.000000 0.600000
0.622098 0.453139 -0.433953 0.300000 0.000000 0.600000
0.233589 0.498354 0.396895 0.000000 0.500000 0.500000
0.256092 -0.462478 0.169637 0.600000 0.300000 0.000000
0.660525 0.413776 0.232004 0.000000 0.500000 0.500000
-0.311544 0.395540 -0.314263 1.000000 0.000000 0.000000
0.633857 0.468698 0.392252 0.600000 0.000000 0.300000
-0.481629 0.126627 -0.429827 0.300000 0.000000 0.600000
-0.664316 -0.355996 0.370227 0.600000 0.000000 0.300000
0.315824 -0.462478 0.309666 0.600000 0.300000 0.000000
0.631549 -0.166641 -0.429827 0.300000 0.000000 0.600000
-0.526024 -0.201785 -0.429827 0.300000 0.000000 0.600000
-0.690676 -0.359584 -0.411961 0.300000 0.600000 0.000000
-0.363320 -0.201119 -0.416492 0.300000 0.000000 0.600000
-0.089161 -0.075785 -0.043677 0.500000 0.000000 0.500000
-0.692898 -0.247922 0.420552 0.300000 0.000000 0.600000
-0.235205 -0.462478 0.072503 0.600000 0.300000 0.000000
-0.102301 0.416287 -0.314263 0.000000 0.000000 1.000000
-0.690676 -0.023678 0.209215 0.300000 0.600000 0.000000
0.413755 -0.021679 -0.429827 0.300000 0.000000 0.600000
0.678304 -0.469112 -0.192346 0.000000 0.500000 0.500000
-0.078260 0.047680 0.396895 0.300000 0.000000 0.600000
-0.690676 -0.653653 -0.289010 0.500000 0.500000 0.000000
0.678304 -0.554870 -0.135482 0.000000 1.000000 0.000000
-0.672897 -0.423733 -0.186413 0.300000 0.600000 0.000000
-0.305910 -0.355690 0.396895 0.300000 0.000000 0.600000
0.645135 -0.653766 0.285777 0.500000 0.000000 0.500000
0.678304 -0.474738 0.122874 0.000000 0.500000 0.500000
-0.690676 -0.297403 -0.285784 0.300000 0.600000 0.000000
0.071597 0.393701 -0.144028 0.600000 0.000000 0.300000
-0.672897 0.031822 0.110881 0.300000 0.600000 0.000000
0.087797 -0.102454 0.213349 0.500000 0.000000 0.500000
-0.204893 0.388690 -0.194722 0.000000 1.000000 0.000000
-0.111863 -0.075785 -0.272455 0.500000 0.000000 0.500000
0.176105 -0.462478 -0.399301 0.600000 0.300000 0.000000
0.643542 0.559812 0.386097 0.600000 0.000000 0.300000
0.071216 -0.162638 -0.429827 0.300000 0.000000 0.600000
0.240291 -0.131545 0.396895 0.800000 0.200000 0.500000
-0.579558 0.515365 -0.031810 0.600000 0.000000 0.300000
0.522434 -0.462478 0.225086 0.600000 0.300000 0.000000
0.190105 -0.485582 -0.456495 0.800000 0.200000 0.500000
-0.028863 -0.030694 0.370227 0.600000 0.000000 0.300000
0.199836 0.388690 0.139009 0.600000 0.300000 0.000000
-0.128636 0.009620 -0.416492 0.300000 0.000000 0.600000
0.467537 -0.398453 -0.429827 0.300000 0.000000 0.600000
-0.456222 0.496970 0.396895 0.600000 0.000000 0.300000
-0.436116 0.388690 0.226262 0.000000 1.000000 0.000000
-0.146830 0.289588 -0.416492 0.300000 0.000000 0.600000
-0.690676 0.429018 0.124913 0.300000 0.600000 0.000000
0.422483 -0.396180 0.396895 0.800000 0.200000 0.500000
-0.690676 -0.216353 -0.127359 0.300000 0.600000 0.000000
-0.175647 -0.326296 -0.416492 0.300000 0.000000 0.600000
0.274526 0.524275 0.396895 0.000000 0.500000 0.500000
0.361261 0.388248 0.396895 0.000000 0.500000 0.500000
0.429445 -0.049296 0.396895 0.800000 0.200000 0.500000
0.668365 -0.386134 0.396895 0.800000 0.200000 0.500000
-0.690676 0.317378 0.080496 0.300000 0.600000 0.000000
-0.566223 0.517161 0.064549 0.600000 0.000000 0.300000
-0.146342 -0.462478 0.293526 0.600000 0.300000 0.000000
0.469743 -0.489585 0.423563 0.800000 0.200000 0.500000
0.120510 -0.075785 0.086769 0.500000 0.000000 0.500000
0.660525 -0.245863 -0.070634 0.000000 0.500000 0.500000
-0.342888 0.388690 -0.059860 0.000000 1.000000 0.000000
-0.368939 -0.075785 -0.073698 0.500000 0.000000 0.500000
0.245905 -0.075785 -0.388208 0.500000 0.000000 0.500000
-0.646880 0.533144 -0.097315 0.600000 0.000000 0.300000
0.652840 0.553145 0.411930 0.000000 0.500000 0.500000
-0.033298 -0.075785 -0.329869 0.500000 0.000000 0.500000
0.047151 0.458188 0.381320 0.600000 0.000000 0.300000
0.073374 -0.075785 0.015608 0.500000 0.000000 0.500000
-0.444538 -0.462478 -0.089198 0.600000 0.300000 0.000000
-0.672897 0.202764 -0.192353 0.300000 0.600000 0.000000
-0.149776 0.466241 -0.314263 1.000000 0.000000 0.000000
-0.690676 0.285643 -0.411230 0.300000 0.600000 0.000000
0.678304 -0.382334 -0.218038 0.000000 0.500000 0.500000
-0.690676 -0.128957 -0.333611 0.300000 0.600000 0.000000
0.357406 -0.377532 0.396895 0.800000 0.200000 0.500000
0.095509 -0.153260 -0.416492 0.300000 0.000000 0.600000
-0.672897 -0.164974 0.347865 0.300000 0.600000 0.000000
-0.060855 -0.574189 -0.456495 0.800000 0.200000 0.500000
0.582294 0.395357 0.093390 0.600000 0.300000 0.000000
0.419440 0.328869 0.396895 0.000000 0.500000 0.500000
0.660525 0.355162 -0.088730 0.000000 0.500000 0.500000
0.678304 -0.415985 0.350426 0.000000 0.500000 0.500000
0.660525 -0.420865 -0.376276 0.000000 0.500000 0.500000
0.093263 -0.320681 -0.416492 0.300000 0.000000 0.600000
0.213386 -0.462478 0.155019 0.600000 0.300000 0.000000
-0.390255 -0.030214 -0.429827 0.300000 0.000000 0.600000
0.329261 0.383500 0.423563 0.000000 0.500000 0.500000
-0.383787 0.515365 -0.421862 0.300000 0.000000 0.600000
-0.039731 -0.527646 0.285777 0.500000 0.000000 0.500000
0.653805 0.267852 -0.416492 0.300000 0.000000 0.600000
0.172818 0.268672 -0.429827 0.300000 0.000000 0.600000
