ply
format ascii 1.0
element vertex 1261
property float x
property float y
property float z
property uchar red
property uchar green
property uchar blue
end_header
-0.476172 -0.158776 0.396895 76 0 153
-0.672897 -0.359260 -0.327910 76 153 0
0.299724 0.325425 0.370227 153 0 76
-0.619301 0.442399 -0.416492 76 0 153
-0.413773 -0.342002 0.423563 76 0 153
-0.577333 -0.462478 -0.241194 153 76 0
0.503809 -0.102454 0.105215 127 0 127
0.678304 0.512459 -0.430273 0 127 127
-0.652691 -0.075785 -0.230334 76 153 0
-0.252036 0.395357 0.205637 0 255 0
0.678304 -0.585345 -0.217871 0 255 0
0.660525 0.012174 -0.386975 0 127 127
-0.690676 -0.073639 -0.449531 76 153 0
0.221714 -0.462478 0.137874 153 76 0
0.398117 0.057989 0.423563 204 51 127
0.511664 -0.098673 0.370227 127 0 127
0.632220 0.515365 0.159791 76 0 153
-0.205831 -0.102454 -0.075469 127 0 127
-0.640346 -0.075785 0.326319 127 0 127
0.135404 -0.387264 0.423563 204 51 127
-0.690676 0.423402 0.222381 76 153 0
-0.690676 -0.060672 -0.327508 76 153 0
0.132988 -0.075785 0.226514 127 0 127
-0.690676 -0.637159 0.195962 127 127 0
-0.443724 -0.102454 -0.007475 127 0 127
0.483752 -0.475554 -0.416492 76 0 153
-0.475366 0.512061 -0.456495 76 0 153
-0.130659 -0.067121 -0.429827 76 0 153
0.639908 0.186022 -0.416492 76 0 153
-0.118172 0.360586 -0.416492 76 0 153
0.660525 0.063221 -0.119306 0 127 127
0.070775 -0.279824 -0.429827 76 0 153
0.265109 -0.250576 -0.429827 76 0 153
-0.348324 -0.396815 0.396895 76 0 153
-0.363888 0.204707 0.423563 76 0 153
0.582742 0.435351 0.090531 76 153 0
0.677899 0.009765 0.423563 204 51 127
-0.331335 0.011700 0.396895 76 0 153
0.609411 0.392608 0.297217 76 153 0
-0.464068 0.328686 0.375999 153 0 76
0.098987 0.388690 -0.264444 153 76 0
0.100806 0.453545 -0.456495 76 0 153
0.281357 0.376895 -0.314263 76 0 153
-0.263361 -0.297539 0.423563 76 0 153
-0.621782 0.373091 0.081573 204 51 127
-0.353124 -0.102454 0.365411 127 0 127
-0.273345 0.160492 0.396895 76 0 153
-0.128345 -0.462478 0.002453 153 76 0
-0.672897 0.333864 -0.063712 76 153 0
0.047151 -0.309760 0.373882 153 0 76
0.181360 -0.462478 0.050293 153 76 0
0.323449 -0.319548 -0.416492 76 0 153
0.605599 0.197464 0.396895 204 51 127
0.609411 0.414750 -0.129327 76 153 0
-0.589521 0.515365 0.199025 153 0 76
-0.553674 -0.462478 0.184332 153 76 0
0.449853 -0.583697 0.285777 127 0 127
-0.184555 -0.462478 -0.079557 153 76 0
-0.305072 0.489791 0.423563 153 0 76
0.660525 -0.328755 -0.245679 0 127 127
-0.326447 0.544617 0.423563 153 0 76
-0.672897 0.033308 0.151245 76 153 0
0.116345 0.006880 -0.416492 76 0 153
0.351642 -0.059936 0.423563 204 51 127
-0.492598 -0.472626 0.423563 76 0 153
-0.119180 0.083936 -0.416492 76 0 153
-0.083504 0.441139 -0.416492 76 0 153
0.660525 -0.266273 0.057289 0 127 127
0.530863 -0.029350 -0.429827 76 0 153
0.313810 -0.137966 0.396895 204 51 127
-0.056590 0.514218 -0.456495 76 0 153
0.660525 -0.285914 -0.120137 0 127 127
0.660525 -0.052722 -0.311545 0 127 127
0.605045 -0.394087 -0.429827 76 0 153
0.678304 -0.187148 0.122744 0 127 127
-0.297903 -0.468310 0.423563 153 0 76
-0.027955 -0.075785 -0.393411 127 0 127
0.660525 0.048369 -0.455507 0 127 127
0.380111 0.265266 -0.429827 76 0 153
0.510425 -0.462478 0.129337 153 76 0
0.097629 0.477585 0.321721 153 0 76
-0.504006 0.395357 -0.006151 0 255 0
-0.068377 -0.582445 0.285777 127 0 127
-0.595114 0.468029 -0.280573 255 0 0
-0.479201 0.375567 -0.287595 255 0 0
0.407350 0.553145 0.419955 0 127 127
-0.694126 -0.075309 0.370227 76 153 0
0.582742 0.422120 0.259727 76 153 0
0.347021 0.392038 -0.429827 76 0 153
-0.328828 0.395357 0.042698 0 255 0
0.518986 -0.462478 -0.044085 153 76 0
-0.650894 0.411779 0.396895 153 0 76
0.660525 0.440608 0.093182 0 127 127
-0.566134 -0.102454 -0.081975 127 0 127
-0.026879 0.379637 -0.416492 76 0 153
0.660525 0.071859 -0.054745 0 127 127
0.678304 -0.614843 0.175329 0 255 0
0.660525 -0.030028 -0.239973 0 127 127
-0.126740 0.449558 -0.287595 255 0 0
-0.110637 0.372067 -0.151369 0 0 255
-0.259119 0.308980 0.423563 76 0 153
0.404348 -0.274622 -0.416492 76 0 153
0.643114 -0.441495 -0.416492 76 0 153
0.121162 -0.462478 0.134337 153 76 0
-0.627791 -0.462478 0.230841 153 76 0
0.630125 -0.071645 -0.429827 127 0 127
-0.083969 0.469865 0.265943 0 0 255
-0.690676 -0.008285 0.292235 76 153 0
0.582742 0.431599 0.022755 76 153 0
0.601497 -0.492442 -0.456495 204 51 127
0.084657 0.541189 0.423563 0 127 127
0.462556 -0.075785 -0.247303 127 0 127
0.317088 0.161301 0.396895 204 51 127
0.230306 -0.327012 0.396895 204 51 127
0.169607 -0.199110 -0.416492 76 0 153
-0.690676 -0.184980 -0.225883 76 153 0
-0.028838 -0.102454 -0.257558 127 0 127
0.008897 -0.102454 0.182824 127 0 127
0.261398 -0.250185 0.396895 204 51 127
0.430912 -0.332899 0.423563 204 51 127
-0.690676 -0.093162 0.067915 76 153 0
0.660525 -0.234768 -0.117505 0 127 127
-0.415812 0.064547 0.423563 76 0 153
0.588033 -0.228726 -0.416492 76 0 153
-0.072390 -0.465925 0.423563 76 0 153
-0.240885 -0.102454 0.232448 127 0 127
-0.665381 -0.040754 -0.416492 76 153 0
-0.338638 -0.057456 -0.429827 76 0 153
0.553918 0.515365 -0.214012 76 0 153
-0.449547 -0.523082 0.285777 127 0 127
0.314433 -0.462478 -0.407252 76 0 153
-0.672897 0.266709 -0.140821 76 153 0
-0.168935 0.295351 0.422189 76 0 153
-0.553992 -0.249558 -0.416492 76 0 153
0.214653 -0.325191 -0.416492 76 0 153
0.678304 0.522655 0.320999 0 127 127
0.258115 -0.462478 0.001602 153 76 0
-0.672897 -0.361723 0.297727 76 153 0
0.678304 -0.009734 0.319864 0 127 127
-0.621782 0.391180 -0.306440 204 51 127
-0.011997 -0.475549 0.370227 153 76 0
-0.023916 -0.075785 0.324276 127 0 127
-0.672897 0.066629 0.005610 76 153 0
0.011535 -0.438761 -0.416492 76 0 153
0.284829 0.395357 -0.209103 153 76 0
0.136445 0.505341 -0.456495 76 0 153
0.098266 0.445382 0.221504 153 0 76
-0.672897 0.360751 -0.256486 76 153 0
-0.578329 0.434014 0.370227 153 0 76
-0.418777 0.388690 -0.271185 0 255 0
-0.123657 -0.201924 0.423563 76 0 153
-0.059014 0.035424 0.464859 153 0 76
0.121775 0.388690 -0.094766 153 76 0
-0.019874 -0.462478 -0.336109 153 76 0
-0.595438 0.477585 0.037211 204 51 127
-0.363892 -0.189621 -0.429827 76 0 153
0.622737 -0.462478 -0.155706 153 76 0
0.071597 0.390493 0.335112 153 0 76
0.088210 -0.100071 0.423563 204 51 127
-0.042492 -0.098123 0.370227 153 0 76
-0.195067 -0.102454 -0.382664 127 0 127
0.612510 0.533144 -0.068626 76 0 153
0.563741 -0.462478 -0.081250 153 76 0
-0.323096 -0.462478 -0.303760 153 76 0
-0.672897 -0.423840 -0.172417 76 153 0
0.087634 -0.075785 0.132059 127 0 127
0.678304 -0.370210 0.109897 0 127 127
-0.690676 0.124204 -0.248479 76 153 0
0.516965 -0.197070 0.423563 204 51 127
0.075651 0.038110 -0.416492 76 0 153
0.174665 0.455671 -0.456495 76 0 153
0.678304 0.070606 0.273692 0 127 127
-0.520279 -0.119997 -0.429827 76 0 153
-0.193135 -0.529889 -0.456495 204 51 127
0.660525 0.386665 0.039148 0 127 127
-0.672897 -0.354566 0.209478 76 153 0
0.194217 -0.462478 0.340420 153 76 0
-0.053308 0.006051 0.423563 76 0 153
0.262330 0.388690 0.299227 153 76 0
0.312647 -0.102454 -0.183680 127 0 127
-0.690676 0.550327 0.027256 76 153 0
0.385573 0.395357 -0.101078 153 76 0
0.504277 0.388690 0.276404 153 76 0
0.142266 -0.453588 0.376404 153 0 76
0.582742 0.473947 -0.007673 76 153 0
0.087820 -0.075785 -0.315007 127 0 127
-0.690676 -0.007399 -0.329424 76 153 0
0.102983 -0.102454 -0.221674 127 0 127
0.639733 -0.102454 0.186095 127 0 127
0.139019 -0.075785 -0.165137 127 0 127
0.363152 0.395357 -0.049135 153 76 0
0.687194 -0.389584 0.385542 153 0 76
-0.144022 -0.484947 0.370227 153 76 0
-0.260594 0.388690 0.105922 0 255 0
-0.019832 -0.493020 0.285777 127 0 127
-0.690676 -0.102096 0.154562 127 0 127
0.633857 0.254951 0.373567 0 127 127
-0.110637 0.432118 -0.196180 0 0 255
-0.059523 0.392765 0.387798 153 0 76
-0.517683 0.518187 -0.429827 76 0 153
-0.083969 0.429744 -0.300731 0 0 255
0.135204 -0.546566 -0.456495 204 51 127
-0.231542 0.396752 0.423563 153 0 76
0.586035 -0.075785 0.337849 127 0 127
-0.401887 0.195105 -0.429827 76 0 153
-0.644463 0.515365 -0.420699 153 0 76
-0.635394 0.533144 -0.188193 153 0 76
-0.089596 0.271679 -0.416492 76 0 153
-0.306187 -0.462478 -0.246257 153 76 0
0.507023 0.104538 -0.416492 76 0 153
0.664503 0.386306 0.370227 0 127 127
0.053729 0.173201 -0.429827 76 0 153
0.184007 -0.102454 -0.224259 127 0 127
-0.271802 0.149349 -0.416492 76 0 153
-0.593560 0.394310 -0.416492 76 0 153
-0.562524 0.521083 0.396895 153 0 76
-0.299844 -0.102454 -0.179066 127 0 127
0.462174 0.432827 0.423563 0 127 127
0.660525 -0.240982 0.339548 0 127 127
-0.308748 0.078937 -0.429827 76 0 153
0.108196 -0.462478 0.297080 153 76 0
-0.162789 -0.016166 -0.429827 76 0 153
-0.012853 -0.058118 0.406586 76 0 153
-0.672897 -0.435271 0.072396 76 153 0
0.545276 -0.102454 0.167175 127 0 127
-0.399479 -0.179208 0.423563 76 0 153
0.546656 -0.055031 0.396895 204 51 127
0.660525 -0.458850 0.082110 0 127 127
0.660525 -0.363495 -0.070972 0 127 127
0.526351 -0.102454 -0.104465 127 0 127
0.320032 0.447143 -0.287595 76 0 153
0.224569 -0.273912 -0.416492 76 0 153
0.476943 -0.462478 -0.128438 153 76 0
0.237042 -0.555044 0.285777 127 0 127
0.608179 -0.075785 0.270792 127 0 127
-0.345133 0.468695 -0.416492 76 0 153
0.030366 -0.179038 0.423563 204 51 127
-0.247496 -0.075785 -0.250937 127 0 127
0.189692 0.244064 -0.416492 76 0 153
-0.199544 0.383069 0.370227 153 0 76
-0.479035 -0.462478 0.152091 153 76 0
0.179443 -0.068780 0.396895 204 51 127
0.416548 0.388690 -0.188259 153 76 0
-0.085643 -0.456984 -0.416492 153 76 0
0.678304 0.335341 0.203710 0 127 127
-0.672897 -0.235695 -0.390883 76 153 0
-0.655428 -0.075785 -0.181865 76 153 0
-0.464016 0.277472 0.423563 76 0 153
-0.642671 -0.075785 0.229806 127 0 127
-0.080239 -0.075785 -0.192874 127 0 127
0.275187 -0.374883 -0.416492 76 0 153
0.678304 -0.648783 -0.257734 0 255 0
-0.690676 0.249632 -0.064585 76 153 0
-0.690676 -0.549021 0.180900 127 127 0
-0.098842 -0.347957 -0.416492 76 0 153
-0.181666 -0.350916 0.423563 76 0 153
0.678304 -0.163524 -0.177366 0 127 127
0.045773 0.247176 -0.429827 76 0 153
-0.670212 -0.653534 0.285777 127 0 127
-0.411081 0.464439 -0.416492 76 0 153
-0.690676 -0.631019 -0.100590 127 127 0
-0.218504 0.064934 -0.429827 76 0 153
-0.302183 -0.075785 0.090016 127 0 127
-0.581638 -0.254000 0.423563 76 0 153
-0.451754 -0.462478 -0.098960 153 76 0
0.011686 0.446193 0.396895 0 127 127
0.660525 0.322789 0.014882 0 127 127
0.678304 0.106639 0.197913 0 127 127
-0.457709 -0.034684 0.423563 76 0 153
-0.063888 -0.102454 0.158007 127 0 127
0.472876 0.559063 0.370227 153 0 76
0.570633 0.321477 -0.416492 76 0 153
0.260526 -0.204820 -0.416492 76 0 153
0.510321 0.186698 -0.429827 76 0 153
-0.690676 -0.579573 -0.158199 127 127 0
-0.648632 0.515365 0.079003 153 0 76
-0.261714 0.395357 -0.200485 0 255 0
-0.690676 -0.542778 -0.436287 127 127 0
0.614603 -0.557835 -0.456495 204 51 127
0.127017 -0.075785 -0.285870 127 0 127
0.678304 -0.599068 0.129222 0 255 0
-0.403756 -0.102454 0.366408 127 0 127
0.582742 0.473895 0.326502 76 153 0
0.678304 -0.474648 -0.348766 0 127 127
0.448318 -0.147769 0.423563 204 51 127
0.152380 0.459868 0.423563 0 127 127
0.268286 -0.100161 -0.429827 76 0 153
0.266198 0.388690 -0.055613 153 76 0
0.065724 -0.102454 0.184426 127 0 127
0.678304 -0.524642 -0.420186 0 255 0
0.660525 -0.194117 0.079195 0 127 127
0.565526 0.479156 -0.416492 76 0 153
-0.039772 0.147910 0.423563 76 0 153
0.319070 -0.259687 -0.416492 76 0 153
-0.082907 0.467009 0.423563 153 0 76
0.252921 -0.075785 -0.181173 127 0 127
-0.083969 0.466506 -0.039368 0 0 255
0.678304 -0.211286 -0.318337 0 127 127
-0.122923 0.036639 -0.416492 76 0 153
-0.690676 -0.561018 -0.343259 127 127 0
0.363892 -0.075785 0.152237 127 0 127
0.225744 -0.397237 0.396895 204 51 127
-0.690676 0.379858 -0.028604 76 153 0
0.446032 0.335584 0.423563 0 127 127
0.678304 -0.085549 -0.043747 0 127 127
0.039155 -0.026455 0.370227 153 0 76
0.665818 0.559812 -0.172718 0 127 127
-0.109383 -0.462478 -0.327864 153 76 0
-0.112080 -0.102454 0.334967 127 0 127
0.660525 0.340662 -0.130175 0 127 127
-0.480255 -0.372616 -0.416492 76 0 153
0.660525 -0.214213 -0.371407 0 127 127
0.678304 -0.666428 0.256290 0 255 0
0.678304 -0.055066 0.347882 0 127 127
-0.361803 0.388690 -0.207611 0 255 0
0.071597 0.474206 -0.289008 153 0 76
0.384750 -0.075785 0.275590 127 0 127
0.678304 0.046916 0.362256 153 0 76
-0.470660 -0.102454 0.118583 127 0 127
0.660525 -0.260167 -0.452476 0 127 127
0.153240 -0.075785 -0.087500 127 0 127
0.326292 -0.102454 -0.317100 127 0 127
-0.616732 -0.113839 0.396895 76 0 153
0.361429 -0.283534 0.396895 204 51 127
0.645267 0.328699 0.370227 153 0 76
0.660525 -0.451888 -0.065804 153 76 0
0.609411 0.374892 -0.154667 76 153 0
0.687194 -0.153153 0.379093 153 0 76
-0.355813 -0.067378 0.396895 76 0 153
-0.546627 -0.075785 0.315931 127 0 127
0.678304 -0.659433 -0.170614 0 255 0
-0.606031 -0.102454 0.037648 127 0 127
-0.381913 0.275349 0.373089 76 0 153
0.556264 -0.075785 -0.284489 127 0 127
-0.527416 -0.367644 0.396895 76 0 153
0.121117 -0.068150 -0.429827 76 0 153
0.196079 0.243228 0.396895 204 51 127
0.564778 0.279976 0.370227 153 0 76
-0.162673 0.495146 -0.416492 76 0 153
0.129699 0.395357 0.063845 153 76 0
0.369449 0.515704 -0.456495 76 0 153
-0.403497 -0.102454 0.296676 127 0 127
0.359076 0.517181 0.370227 153 0 76
-0.621782 0.377803 -0.202490 204 51 127
0.563734 -0.506925 0.393716 153 0 76
0.559890 -0.458033 -0.456434 204 51 127
0.368961 -0.353955 -0.416492 76 0 153
0.678304 -0.134258 0.145331 0 127 127
0.596193 -0.462478 -0.304913 153 76 0
-0.663336 0.462405 0.370227 76 153 0
0.678304 -0.537214 -0.309783 0 255 0
0.585058 0.477585 -0.139597 76 153 0
0.581649 0.559812 0.377023 153 0 76
-0.690676 0.070953 -0.377003 76 153 0
0.171441 -0.075785 -0.027331 127 0 127
-0.274775 0.211121 0.396895 76 0 153
-0.675773 -0.551950 0.285777 127 127 0
0.233834 0.316884 -0.416492 76 0 153
-0.351990 0.099173 -0.429827 76 0 153
-0.599012 -0.043012 0.396895 76 0 153
0.492689 -0.102454 -0.383413 127 0 127
-0.672897 0.334460 -0.347153 76 153 0
-0.088009 0.222211 0.396895 76 0 153
0.271470 -0.462478 0.200172 153 76 0
0.660525 -0.226170 -0.053250 0 127 127
0.170333 0.559812 0.394147 0 127 127
-0.400493 0.389466 0.423563 153 0 76
0.599237 -0.296065 0.396895 204 51 127
-0.508981 -0.075785 -0.218421 127 0 127
-0.080280 -0.462478 -0.192976 153 76 0
-0.207527 -0.102454 0.107263 127 0 127
0.660525 0.328351 -0.035129 0 127 127
-0.069508 -0.102454 0.208862 127 0 127
0.387979 0.359264 -0.416492 76 0 153
-0.357334 -0.075785 -0.379059 127 0 127
-0.065385 -0.075785 0.076253 127 0 127
0.533380 0.238724 -0.429827 76 0 153
0.678304 -0.608064 -0.079655 0 255 0
-0.264519 -0.075785 -0.070459 127 0 127
0.678304 -0.254058 0.265534 0 127 127
-0.415441 0.388690 0.321797 0 255 0
0.638139 -0.126080 -0.429827 76 0 153
-0.040966 0.021814 -0.429827 76 0 153
0.492835 0.204926 0.396895 204 51 127
0.678304 0.312181 -0.271383 0 127 127
-0.652898 -0.506925 0.370685 153 0 76
0.678304 -0.561614 -0.389126 0 255 0
0.049073 -0.357192 0.423563 204 51 127
-0.263001 -0.102454 -0.313168 127 0 127
-0.556859 -0.075785 -0.285704 127 0 127
-0.241348 -0.026038 -0.416492 76 0 153
-0.446664 -0.407828 0.423563 76 0 153
0.203117 0.395357 -0.143394 153 76 0
-0.298553 0.342930 -0.416492 76 0 153
-0.190691 -0.462478 0.361217 153 76 0
0.100620 -0.152191 -0.416492 76 0 153
-0.261915 0.481595 0.396895 153 0 76
0.255349 -0.462478 0.263541 153 76 0
-0.076525 0.328686 0.372292 153 0 76
-0.529812 -0.325844 -0.429827 76 0 153
0.266742 0.483294 -0.416492 76 0 153
0.004411 0.323897 -0.429827 76 0 153
0.071597 0.449701 -0.015144 153 0 76
0.000481 0.309978 0.422239 153 0 76
-0.471310 0.212386 -0.416492 76 0 153
-0.280728 -0.075785 0.331339 127 0 127
0.486049 -0.102454 -0.161301 127 0 127
0.436873 -0.102454 -0.088221 127 0 127
0.047151 -0.407100 0.371337 153 0 76
0.660525 0.305106 0.155655 0 127 127
-0.595114 0.467736 0.204323 204 51 127
0.445561 0.211681 0.396895 204 51 127
0.074260 -0.494555 0.285777 127 0 127
-0.646228 -0.021295 0.375922 153 0 76
-0.690676 0.229975 0.024134 76 153 0
0.566650 0.268578 0.423563 204 51 127
-0.690676 -0.659991 -0.380534 127 127 0
-0.508586 0.506476 0.380412 153 0 76
0.660525 0.559087 -0.338784 0 127 127
0.299527 0.071619 0.423563 204 51 127
0.541298 0.418997 0.370227 0 127 127
0.255035 -0.462478 0.100722 153 76 0
0.633857 -0.258996 0.374102 153 0 76
0.291394 0.395357 0.088272 153 76 0
-0.311109 0.155109 0.423563 76 0 153
-0.144247 -0.102454 0.006230 127 0 127
-0.474914 -0.102454 0.300439 127 0 127
-0.513507 0.161470 0.396895 76 0 153
-0.685695 -0.192664 0.370227 153 0 76
-0.549318 0.395357 -0.178065 0 255 0
0.579938 -0.439544 0.396895 204 51 127
-0.692898 -0.171415 0.419051 76 0 153
-0.130717 -0.102454 0.078120 127 0 127
-0.625781 0.125647 0.396895 153 0 76
0.678304 0.402246 -0.412133 0 127 127
-0.521841 -0.019249 0.396895 76 0 153
-0.593193 0.453139 -0.453419 76 0 153
0.678304 -0.574941 -0.172571 0 255 0
-0.672897 -0.158033 0.327692 76 153 0
-0.368291 0.459376 0.423563 153 0 76
0.163974 -0.204928 0.423563 204 51 127
0.556987 0.454358 0.423563 0 127 127
-0.103827 0.370911 0.076715 0 0 255
-0.690676 0.245162 -0.390472 76 153 0
0.552143 -0.092628 0.423563 204 51 127
0.662709 -0.236373 0.423563 204 51 127
-0.543489 0.477905 -0.416492 76 0 153
-0.347159 -0.306470 0.396895 76 0 153
-0.672897 0.297516 0.236520 76 153 0
0.160334 -0.358647 0.396895 204 51 127
-0.018779 -0.075785 -0.058449 127 0 127
-0.591013 0.131422 -0.416492 76 0 153
-0.329782 -0.462478 0.004921 153 76 0
-0.307700 0.420133 0.396895 153 0 76
-0.672897 0.353243 0.286869 76 153 0
-0.656203 -0.309657 0.370227 153 0 76
-0.479623 0.395357 -0.211028 0 255 0
-0.300926 0.500352 -0.456495 76 0 153
0.667654 -0.098233 0.396895 204 51 127
-0.690676 -0.453741 -0.032485 76 153 0
-0.672897 0.331369 -0.412412 76 153 0
0.056818 -0.632567 -0.456495 204 51 127
-0.074933 -0.397322 0.423563 76 0 153
0.455922 -0.075785 -0.392304 127 0 127
-0.152572 0.457126 -0.456495 76 0 153
0.608138 -0.462478 -0.389791 153 76 0
0.457071 -0.433681 0.396895 204 51 127
-0.690676 0.193932 0.220957 76 153 0
0.678304 -0.114919 -0.197404 0 127 127
0.569569 0.388690 -0.266128 153 76 0
-0.690676 0.025111 -0.363106 76 153 0
0.068552 -0.075785 -0.381555 127 0 127
-0.600164 0.345136 0.396895 153 0 76
0.660525 0.234776 -0.126927 0 127 127
-0.407707 -0.481318 0.285777 127 0 127
-0.672897 0.397216 -0.346603 76 153 0
0.629683 -0.207147 -0.429827 76 0 153
0.650173 0.515365 0.065758 0 127 127
-0.562395 -0.465841 -0.456495 204 51 127
-0.632396 -0.462478 -0.109802 153 76 0
0.511809 0.284000 -0.429827 76 0 153
-0.289082 -0.462478 0.363957 153 76 0
-0.448490 0.419825 0.370227 153 0 76
-0.549633 0.378462 0.370227 153 0 76
-0.106510 0.453139 -0.454626 76 0 153
0.360116 0.194197 0.396895 204 51 127
0.097156 0.099083 -0.416492 76 0 153
0.019562 0.108162 0.370227 153 0 76
-0.210068 -0.193697 -0.416492 76 0 153
-0.646924 -0.075785 0.097642 127 0 127
0.678304 -0.503083 -0.236040 0 127 127
0.403655 -0.075785 0.100499 127 0 127
-0.672897 0.158417 -0.383772 76 153 0
-0.441712 -0.075785 -0.346880 127 0 127
0.668794 -0.506925 0.373658 153 0 76
-0.324374 -0.075785 0.257162 127 0 127
0.380542 -0.052534 -0.429827 76 0 153
0.579850 0.515365 0.128761 76 0 153
0.310705 0.415441 0.423563 0 127 127
0.524600 0.395357 0.091122 153 76 0
-0.381162 0.022267 -0.429827 76 0 153
0.675295 -0.191962 -0.456495 0 127 127
-0.690676 0.341797 0.188859 76 153 0
-0.014262 -0.348510 -0.429827 76 0 153
-0.672897 -0.454457 0.164862 76 153 0
-0.586928 -0.102454 -0.164497 127 0 127
0.660525 -0.432358 0.214407 0 127 127
0.441330 0.118612 -0.429827 76 0 153
-0.453138 0.510000 0.370227 153 0 76
0.100773 -0.075785 0.289030 127 0 127
0.218634 0.395357 0.030254 153 76 0
-0.690676 -0.105814 0.020005 76 153 0
0.660525 -0.441896 0.140113 0 127 127
0.678304 0.010860 -0.020239 0 127 127
-0.147825 -0.102454 0.259337 127 0 127
0.413856 0.391048 0.423563 0 127 127
-0.673580 -0.318018 0.423563 76 0 153
0.623577 0.372925 -0.429827 76 0 153
-0.665159 -0.102454 -0.092126 76 153 0
0.133542 -0.284309 -0.416492 76 0 153
-0.094594 -0.102454 0.003436 127 0 127
-0.652967 -0.102454 -0.383333 127 0 127
-0.017668 0.506476 0.395758 153 0 76
-0.110637 0.470864 -0.242779 0 0 255
-0.378224 -0.075785 -0.061224 127 0 127
-0.110673 0.435908 0.192024 0 0 255
-0.369770 -0.216995 0.423563 76 0 153
0.000481 -0.346085 0.400135 204 51 127
0.017910 -0.102454 -0.231325 127 0 127
0.503629 -0.425410 0.423563 204 51 127
-0.623083 -0.075785 -0.031624 127 0 127
0.660525 0.172204 0.350627 0 127 127
-0.101203 0.370911 -0.033350 0 0 255
0.672399 0.559812 -0.410290 0 127 127
-0.672897 0.551794 -0.063248 76 153 0
-0.457416 0.108569 0.423563 76 0 153
-0.460472 -0.102454 0.216223 127 0 127
0.660525 0.428541 -0.279556 0 127 127
0.595911 -0.645657 -0.456495 204 51 127
0.555108 0.515365 -0.329959 76 0 153
0.571058 -0.102454 0.052655 127 0 127
0.634854 -0.102454 0.013981 127 0 127
-0.185050 -0.462478 -0.400482 76 0 153
-0.558331 -0.177443 0.423563 76 0 153
-0.176039 -0.316072 -0.416492 76 0 153
-0.029950 -0.421628 -0.429827 76 0 153
0.355020 -0.462478 0.106911 153 76 0
-0.482168 -0.361313 0.423563 76 0 153
-0.361204 0.395357 -0.103419 0 255 0
-0.672897 -0.000166 0.208898 76 153 0
0.373923 0.045032 -0.416492 76 0 153
-0.336695 0.395357 -0.044379 0 255 0
-0.523145 0.308685 0.417218 153 0 76
-0.220883 -0.075785 -0.155552 127 0 127
0.000481 0.236484 0.410665 153 0 76
0.572885 0.231548 0.396895 204 51 127
0.660525 0.486553 -0.177205 0 127 127
0.289852 0.559053 -0.429827 76 0 153
-0.648559 0.265567 -0.429827 76 0 153
-0.177068 -0.075785 0.056910 127 0 127
-0.635159 0.275349 0.389801 76 0 153
-0.586355 0.515365 0.353032 153 0 76
0.660525 0.100450 -0.198429 0 127 127
-0.108060 0.144632 0.423563 76 0 153
0.330401 0.541308 0.396895 0 127 127
-0.453652 -0.487281 0.370227 153 0 76
0.610928 0.447670 0.396895 0 127 127
0.678304 -0.333356 0.305335 0 127 127
-0.007387 -0.253682 0.370227 153 0 76
-0.690676 0.015592 0.333010 76 153 0
0.616148 0.533145 0.396895 0 127 127
0.080544 0.328686 0.392574 153 0 76
-0.331937 0.237262 0.396895 76 0 153
-0.269962 -0.462478 -0.070813 153 76 0
0.256336 -0.209766 0.423563 204 51 127
0.045732 0.312877 0.423563 0 127 127
0.199818 0.388690 0.344062 153 76 0
0.659291 -0.294225 0.423563 204 51 127
0.486457 -0.050414 -0.416492 76 0 153
-0.186532 0.421704 -0.314263 255 0 0
0.498583 0.453139 -0.456298 76 0 153
0.325323 -0.443962 0.423563 204 51 127
0.678304 -0.595632 0.040648 0 255 0
-0.690676 0.185699 -0.197291 76 153 0
-0.606138 -0.075785 -0.239583 127 0 127
-0.258148 -0.462478 0.154992 153 76 0
-0.328152 -0.385863 -0.429827 76 0 153
0.338908 0.123343 -0.416492 76 0 153
0.363456 0.420220 0.370227 0 127 127
0.174914 0.388690 0.078862 153 76 0
0.013122 -0.102454 -0.375258 127 0 127
-0.672897 0.553482 -0.411717 76 153 0
0.639246 0.283771 -0.416492 76 0 153
0.635183 -0.005384 -0.429827 76 0 153
-0.362125 -0.287170 -0.429827 76 0 153
0.099963 0.487899 -0.416492 76 0 153
0.297375 0.370911 0.382222 0 127 127
0.186358 -0.146467 -0.416492 76 0 153
0.257627 -0.462478 0.343800 153 76 0
-0.672897 -0.423492 -0.092640 76 153 0
0.342329 0.395357 0.050330 153 76 0
0.473380 0.119228 0.396895 204 51 127
-0.621782 0.430561 0.358252 204 51 127
-0.672897 0.448726 -0.138449 76 153 0
-0.450685 0.368245 -0.429827 76 0 153
-0.690676 -0.390175 0.153590 76 153 0
0.371582 0.454198 -0.416492 76 0 153
-0.017590 -0.031713 0.370227 153 0 76
0.145231 -0.551266 0.285777 127 0 127
-0.672897 0.426289 -0.177727 76 153 0
0.207843 -0.462478 0.265394 153 76 0
0.102507 -0.075785 -0.074666 127 0 127
-0.605181 0.515365 -0.288139 153 0 76
-0.162260 0.438014 0.477906 76 0 153
0.214493 -0.183163 -0.429827 76 0 153
-0.328343 -0.217232 0.396895 76 0 153
0.197770 0.557129 -0.456495 76 0 153
0.450849 -0.070169 0.423563 204 51 127
-0.504097 -0.462478 -0.260410 153 76 0
-0.019466 -0.102454 -0.301692 127 0 127
0.678304 0.327253 0.118496 0 127 127
0.573471 -0.148913 0.396895 204 51 127
0.293584 -0.664097 0.285777 127 0 127
-0.642125 -0.206916 -0.416492 76 0 153
-0.685092 0.559812 -0.244990 76 153 0
-0.586655 0.416505 -0.287595 255 0 0
-0.141512 0.388690 0.328890 0 255 0
-0.231292 0.553145 0.420270 153 0 76
-0.059523 0.113533 0.377936 153 0 76
0.636628 -0.102454 -0.301234 127 0 127
-0.690676 -0.382922 -0.415787 76 153 0
-0.136004 -0.512011 -0.456495 204 51 127
-0.213427 0.388690 0.115931 0 255 0
-0.699565 -0.248995 0.379060 153 0 76
-0.476452 0.239208 0.396895 76 0 153
0.336543 0.372430 -0.287595 76 0 153
-0.274403 -0.462478 0.308548 153 76 0
-0.525502 -0.293621 0.423563 76 0 153
-0.213660 0.388690 -0.053539 0 255 0
0.101465 -0.102454 -0.358700 127 0 127
0.225967 0.154914 -0.429827 76 0 153
0.426555 -0.220427 -0.416492 76 0 153
-0.603661 -0.317239 0.423563 76 0 153
-0.496169 -0.093615 0.396895 76 0 153
-0.050935 -0.263926 0.423563 76 0 153
-0.365020 0.308685 0.422886 153 0 76
-0.672897 -0.363865 0.023281 76 153 0
0.537141 -0.102454 -0.364366 127 0 127
-0.611049 -0.102454 -0.401949 127 0 127
0.431873 0.059684 -0.416492 76 0 153
0.029923 -0.075785 0.322523 127 0 127
-0.496580 0.082327 -0.416492 76 0 153
0.119726 0.395357 -0.220653 153 76 0
0.660525 -0.306007 -0.079977 0 127 127
0.298961 -0.102454 -0.395929 127 0 127
0.660525 -0.192366 0.210302 0 127 127
-0.243067 -0.106188 0.396895 76 0 153
-0.622040 -0.052797 -0.429827 76 0 153
-0.230668 0.477350 -0.314263 255 0 0
0.678304 -0.515031 0.099928 0 255 0
-0.690676 0.424433 -0.101713 76 153 0
0.425871 -0.462478 -0.327503 153 76 0
0.418274 -0.102454 -0.045441 127 0 127
-0.690676 -0.266034 0.172985 76 153 0
0.678304 0.438560 0.201247 0 127 127
0.202204 0.133849 0.423563 204 51 127
-0.690676 0.109915 -0.316516 76 153 0
-0.621782 0.416395 -0.030344 204 51 127
0.077863 0.406605 0.423563 0 127 127
-0.075854 -0.462478 0.249497 153 76 0
0.003606 0.072169 0.396895 204 51 127
0.300150 -0.174951 0.423563 204 51 127
-0.076231 -0.102454 0.297354 127 0 127
-0.646228 -0.162218 0.394335 153 0 76
0.553807 0.118151 0.396895 204 51 127
-0.083969 0.408345 0.313113 0 0 255
0.233681 -0.102454 0.302464 127 0 127
0.678304 -0.026718 0.046370 0 127 127
0.495465 -0.248096 -0.429827 76 0 153
0.398164 -0.507945 0.285777 127 0 127
0.193639 -0.286676 0.396895 204 51 127
-0.513983 0.395357 0.202487 0 255 0
0.660525 -0.129508 0.242448 0 127 127
-0.690676 0.490943 -0.136755 76 153 0
0.250520 0.388690 0.195762 153 76 0
-0.641695 -0.462478 -0.394329 153 76 0
0.630701 -0.066091 0.423563 204 51 127
0.146679 0.328686 0.379855 153 0 76
-0.045572 -0.138739 0.396895 76 0 153
0.149914 0.395357 0.155253 153 76 0
-0.690676 -0.534859 -0.115991 127 127 0
0.425640 -0.462478 -0.063039 153 76 0
0.660525 0.216425 -0.194390 0 127 127
-0.326498 -0.102454 -0.251652 127 0 127
-0.571246 0.150738 0.396895 76 0 153
-0.111976 -0.102454 -0.381389 127 0 127
0.588520 -0.377382 0.396895 204 51 127
-0.639519 0.553145 0.415353 153 0 76
-0.487712 -0.462478 -0.214003 153 76 0
-0.158546 -0.462478 -0.362687 153 76 0
-0.161006 -0.075785 -0.176653 127 0 127
-0.211781 0.001494 0.423563 76 0 153
0.430092 0.244302 0.423563 204 51 127
0.176723 0.348043 0.423563 0 127 127
0.071597 0.395620 -0.118846 153 0 76
0.048137 -0.480212 -0.416492 76 0 153
0.446666 0.040379 0.423563 204 51 127
0.590086 0.533144 -0.194982 76 0 153
-0.256817 0.559812 -0.436123 76 0 153
0.678304 0.201584 0.261070 0 127 127
-0.690676 0.356741 0.016094 76 153 0
-0.690676 -0.463403 0.330479 76 153 0
-0.265432 0.355132 0.396895 153 0 76
0.516353 -0.302176 0.423563 204 51 127
-0.055242 -0.071685 0.423563 76 0 153
0.098266 0.434444 -0.231065 153 0 76
-0.423360 -0.458377 0.423563 76 0 153
0.012886 0.129902 0.423563 204 51 127
-0.404395 0.402584 0.370227 153 0 76
-0.476571 0.395357 -0.128015 0 255 0
0.678304 0.223799 -0.407667 0 127 127
-0.139188 -0.387095 -0.416492 76 0 153
0.098266 0.467394 0.067097 153 0 76
-0.672897 0.540506 -0.149180 76 153 0
-0.690676 0.512946 0.099093 76 153 0
-0.064994 -0.462478 -0.367665 153 76 0
-0.170803 -0.102454 -0.222082 127 0 127
-0.690676 -0.255794 -0.209766 76 153 0
0.650707 -0.102454 0.089509 0 127 127
0.568730 0.533144 -0.119098 76 0 153
-0.240360 0.395357 0.023654 0 255 0
0.502149 0.069718 0.396895 204 51 127
0.187682 0.528964 0.423563 0 127 127
-0.690676 -0.098314 -0.242331 76 153 0
-0.690676 -0.605323 -0.064540 127 127 0
-0.363370 -0.131811 0.396895 76 0 153
-0.124188 -0.462478 0.295626 153 76 0
0.597766 0.477585 0.091432 76 153 0
0.218285 -0.462478 -0.084631 153 76 0
-0.609392 -0.365830 0.423563 76 0 153
-0.602352 0.477585 0.291222 204 51 127
0.071597 0.440719 -0.071370 153 0 76
0.678304 -0.039175 -0.154930 0 127 127
-0.492878 0.419718 0.370227 153 0 76
-0.127751 0.028811 0.423563 76 0 153
0.678304 -0.275893 -0.038484 0 127 127
-0.479800 0.127197 -0.416492 76 0 153
0.055619 0.518555 0.370227 153 0 76
-0.569552 0.388690 0.130534 0 255 0
-0.639544 0.026300 0.423563 76 0 153
0.101978 0.163366 0.423563 204 51 127
0.234150 0.396011 0.423563 0 127 127
-0.073716 0.188203 0.438163 153 0 76
0.019047 -0.102454 0.008976 127 0 127
0.118548 -0.462478 0.040058 153 76 0
-0.690676 0.227049 0.143485 76 153 0
-0.336617 -0.075785 -0.079560 127 0 127
-0.405179 0.235922 0.396895 76 0 153
-0.259050 0.096460 0.423563 76 0 153
0.427490 -0.462478 0.112053 153 76 0
-0.315433 0.370911 -0.310177 255 0 0
0.660525 0.028132 -0.251171 0 127 127
-0.322046 0.388690 0.265613 0 255 0
0.678304 -0.449856 -0.164925 0 127 127
0.678304 -0.083881 -0.135421 0 127 127
0.596256 0.178734 -0.416492 76 0 153
0.376222 -0.462478 0.208083 153 76 0
-0.152619 -0.075785 -0.301797 127 0 127
0.273782 0.431506 -0.314263 76 0 153
-0.032620 0.340109 0.423563 153 0 76
-0.574382 -0.462478 -0.023145 153 76 0
0.084152 -0.469800 0.370227 153 0 76
-0.597268 0.515365 -0.218636 153 0 76
-0.309857 -0.036994 0.396895 76 0 153
0.660525 0.365724 0.234606 0 127 127
0.660525 0.258159 -0.208339 0 127 127
-0.450618 -0.237936 0.396895 76 0 153
0.660525 -0.407400 0.259356 0 127 127
-0.047697 -0.462478 -0.265031 153 76 0
-0.512221 -0.462478 -0.344622 153 76 0
0.367369 -0.459712 0.423563 204 51 127
-0.085352 0.423388 0.438303 76 0 153
-0.690676 -0.246750 -0.061368 76 153 0
-0.239282 -0.462478 -0.349806 153 76 0
-0.690676 -0.287608 0.084740 76 153 0
0.660525 0.054903 -0.199503 0 127 127
-0.164767 -0.666531 0.285777 127 0 127
0.192709 -0.458033 -0.453160 204 51 127
0.274429 -0.075785 -0.321334 127 0 127
-0.002186 0.170195 -0.416492 76 0 153
0.475216 -0.075785 -0.290620 127 0 127
0.609411 0.466465 -0.260940 76 153 0
-0.339615 -0.664175 0.285777 127 0 127
0.396061 0.388690 0.113299 153 76 0
0.351906 -0.075785 -0.193848 127 0 127
0.632645 0.533144 0.241993 76 0 153
-0.469331 0.453139 -0.455070 76 0 153
-0.690676 -0.132430 -0.301707 76 153 0
0.025431 -0.137422 0.396895 153 0 76
0.455789 -0.230477 0.396895 204 51 127
-0.326671 0.475450 -0.314263 255 0 0
0.660525 -0.359847 -0.159869 0 127 127
0.660525 0.488570 -0.398172 0 127 127
-0.408631 -0.268342 0.396895 76 0 153
0.605545 0.370911 0.025493 76 153 0
-0.193023 0.388690 0.036036 0 255 0
0.660525 0.412361 -0.014033 0 127 127
0.627822 0.064597 0.423563 204 51 127
-0.052640 -0.462478 -0.065829 153 76 0
0.595410 -0.214955 0.396895 204 51 127
-0.648152 -0.462478 0.008870 153 76 0
-0.466724 0.395357 0.025622 0 255 0
0.388974 -0.188593 0.423563 204 51 127
-0.169582 -0.462478 -0.024510 153 76 0
-0.343733 -0.462478 0.124444 153 76 0
-0.610175 0.533144 0.263360 153 0 76
0.218044 -0.102454 -0.269591 127 0 127
-0.566780 -0.453588 0.370795 153 0 76
-0.522336 0.459026 0.396895 153 0 76
-0.123213 0.370911 0.387199 153 0 76
0.581306 -0.462478 0.211392 153 76 0
0.234689 0.040236 0.423563 204 51 127
-0.587119 0.212065 -0.416492 76 0 153
0.181187 0.388690 0.232162 153 76 0
-0.690676 -0.595763 -0.300397 127 127 0
0.098266 0.373471 0.241036 153 0 76
0.660525 0.398233 0.154730 0 127 127
0.678304 0.258401 0.150065 0 127 127
0.513165 -0.462478 -0.281254 153 76 0
0.512534 -0.075785 -0.230320 127 0 127
-0.102027 -0.453588 0.393974 153 0 76
0.116780 0.368089 0.423563 0 127 127
0.543067 -0.110647 -0.429827 76 0 153
-0.400965 -0.008899 0.396895 76 0 153
0.678304 -0.460059 -0.250597 0 127 127
-0.656037 0.075121 -0.416492 76 0 153
-0.126543 0.395357 -0.220167 0 255 0
-0.372287 0.080750 0.423563 76 0 153
-0.105588 -0.077667 0.370227 127 0 127
0.103006 0.395357 0.153952 153 76 0
0.389673 0.466931 -0.456495 76 0 153
-0.690676 0.155022 0.285766 76 153 0
-0.183083 -0.089945 -0.429827 76 0 153
-0.651234 -0.462478 -0.321794 153 76 0
0.524389 0.311944 0.370227 153 0 76
0.321908 0.441846 -0.416492 76 0 153
-0.459203 -0.504865 -0.456495 204 51 127
0.660525 0.480406 -0.134133 0 127 127
-0.595114 0.371581 -0.160336 0 255 0
-0.652677 -0.075785 0.140762 127 0 127
-0.094011 -0.009431 0.396895 76 0 153
0.127949 0.388690 0.007821 153 76 0
-0.672897 0.514390 0.302187 76 153 0
-0.690676 -0.032830 -0.053797 76 153 0
-0.280293 -0.610338 -0.456495 204 51 127
-0.511494 -0.462478 -0.413567 153 76 0
-0.119609 -0.102454 -0.140726 127 0 127
-0.688627 0.436083 -0.456495 76 153 0
0.181652 0.384376 -0.287595 76 0 153
-0.621782 0.435390 0.471953 76 0 153
-0.452940 -0.075785 -0.176887 127 0 127
-0.469912 -0.102454 -0.274416 127 0 127
0.082087 0.370911 -0.029838 153 0 76
0.660525 -0.485152 0.239592 0 127 127
-0.535198 -0.496982 0.285777 127 0 127
-0.672897 0.192012 -0.423244 76 153 0
0.660525 -0.420056 -0.106472 0 127 127
0.660525 -0.282719 0.100918 0 127 127
-0.186847 -0.075785 -0.104378 127 0 127
-0.541779 -0.113748 0.423563 76 0 153
-0.314529 -0.102454 -0.317896 127 0 127
-0.115416 -0.462478 0.082965 153 76 0
-0.621782 0.419089 0.226020 204 51 127
-0.595610 0.202514 0.423563 76 0 153
0.266685 -0.404072 0.423563 204 51 127
-0.407633 -0.075785 -0.116875 127 0 127
0.047151 0.022469 0.377627 153 0 76
-0.690676 0.203850 -0.286268 76 153 0
-0.279230 0.388690 -0.246761 0 255 0
0.590126 -0.022640 0.396895 204 51 127
0.444818 -0.075785 -0.122520 127 0 127
0.412836 -0.440157 -0.429827 76 0 153
0.172569 -0.075785 0.101039 127 0 127
0.115425 0.244125 -0.416492 76 0 153
0.456214 -0.075785 0.229235 127 0 127
-0.247849 0.326083 -0.416492 76 0 153
-0.165787 0.311688 -0.416492 76 0 153
-0.406272 -0.036472 -0.429827 76 0 153
0.063389 0.030671 0.469738 0 0 255
-0.690676 -0.002305 -0.396642 76 153 0
-0.690676 -0.181266 -0.356535 76 153 0
0.609411 0.371742 -0.048344 76 153 0
-0.127265 0.370911 -0.288743 0 0 255
0.609411 0.407669 -0.074098 76 153 0
-0.474845 -0.284202 -0.416492 76 0 153
-0.435801 0.499962 -0.416492 76 0 153
0.415244 -0.075785 -0.321037 127 0 127
-0.131273 -0.284030 0.396895 76 0 153
0.083174 -0.462478 0.113296 153 76 0
0.306150 -0.462478 -0.132633 153 76 0
-0.145686 -0.462478 -0.107494 153 76 0
-0.628458 0.244539 0.423563 76 0 153
0.422226 0.388690 0.314334 153 76 0
0.008587 -0.102454 -0.122267 127 0 127
0.428028 0.525783 -0.429827 76 0 153
-0.566223 0.524078 -0.041258 153 0 76
-0.638687 0.539343 -0.456495 76 0 153
-0.690676 0.499983 -0.305774 76 153 0
0.678304 -0.278600 0.228550 0 127 127
0.572934 0.038286 -0.429827 76 0 153
0.523787 -0.534294 0.285777 127 0 127
-0.293067 -0.097335 -0.429827 76 0 153
-0.067970 -0.534466 0.285777 127 0 127
0.037532 -0.220853 0.396895 153 0 76
0.071948 0.477585 0.362705 153 0 76
0.584832 0.533144 -0.298575 76 0 153
0.314813 -0.004257 -0.429827 76 0 153
0.463609 -0.314178 -0.416492 76 0 153
0.172109 0.408844 0.370227 0 127 127
-0.672108 0.515365 0.182546 153 0 76
-0.234967 -0.462478 -0.145762 153 76 0
0.301437 -0.462478 -0.067766 153 76 0
0.199504 -0.102454 0.040479 127 0 127
-0.672897 -0.484122 -0.353159 76 153 0
0.315848 -0.462478 0.144157 153 76 0
-0.670539 0.515365 -0.015778 76 153 0
0.150508 -0.278725 0.396895 204 51 127
-0.490901 0.275349 0.372078 153 0 76
-0.692898 0.509953 0.422341 153 0 76
0.529020 0.395357 -0.190515 153 76 0
0.215025 -0.480554 0.423563 204 51 127
0.589636 -0.075785 -0.092593 127 0 127
0.051158 -0.421926 -0.416492 76 0 153
0.139191 0.275349 0.380483 153 0 76
0.660525 -0.132582 -0.364324 0 127 127
0.372211 0.319726 0.370227 153 0 76
-0.359376 -0.462478 0.196858 153 76 0
-0.063383 -0.282420 -0.429827 76 0 153
0.122681 -0.193171 -0.416492 76 0 153
-0.638254 -0.102454 -0.260846 127 0 127
-0.340785 -0.102454 -0.161895 127 0 127
-0.032944 -0.102454 0.066976 127 0 127
0.660525 -0.310623 0.154162 0 127 127
0.642722 0.511686 -0.456495 0 127 127
0.410891 0.388690 -0.259380 153 76 0
-0.672897 -0.180472 -0.126440 76 153 0
0.426632 0.476218 -0.416492 76 0 153
-0.190298 0.372502 0.423563 153 0 76
0.447155 0.242568 -0.429827 76 0 153
-0.597756 -0.462478 -0.061994 153 76 0
0.425952 -0.401243 0.396895 204 51 127
0.289503 0.273575 -0.416492 76 0 153
0.414721 -0.119576 -0.416492 76 0 153
0.410591 0.499503 0.396895 153 0 76
0.384382 0.000568 0.423563 204 51 127
-0.672897 0.555880 0.121557 76 153 0
0.660525 0.245192 0.087710 0 127 127
-0.388069 -0.039950 0.423563 76 0 153
0.593844 0.533144 -0.241948 76 0 153
0.339036 -0.102454 -0.369450 127 0 127
0.384210 0.473605 0.423563 0 127 127
-0.690676 -0.316155 -0.188648 76 153 0
0.410556 -0.485562 0.370227 153 0 76
0.143401 0.388690 -0.264765 153 76 0
-0.690676 0.445665 0.319989 76 153 0
-0.592628 -0.262393 -0.429827 76 0 153
0.286834 -0.631827 -0.456495 204 51 127
0.461122 -0.462478 -0.088039 153 76 0
0.660525 -0.039136 0.112417 0 127 127
-0.690676 0.418465 -0.385216 76 153 0
-0.294684 -0.458033 -0.438652 204 51 127
0.019908 -0.500258 0.412900 204 51 127
0.166920 0.009367 0.423563 204 51 127
-0.404076 -0.398644 0.396895 76 0 153
0.640324 -0.352631 0.370227 153 0 76
-0.677346 0.559812 0.164759 76 153 0
0.660525 0.113325 0.013542 0 127 127
-0.446335 0.439344 0.423563 153 0 76
-0.351456 -0.462478 0.286053 153 76 0
-0.036285 -0.204306 0.423563 76 0 153
-0.121115 -0.102226 0.423563 76 0 153
0.003905 -0.102454 0.137397 127 0 127
0.147093 -0.505524 -0.456495 204 51 127
0.377285 -0.102454 -0.077951 127 0 127
0.634971 -0.462478 -0.286969 153 76 0
0.609411 0.407259 0.227797 76 153 0
-0.083969 0.385648 -0.115518 0 0 255
-0.407390 -0.470784 -0.416492 153 76 0
0.660525 0.190038 -0.267692 0 127 127
-0.672897 -0.384259 0.365342 76 153 0
-0.609614 0.515365 -0.337607 153 0 76
0.678304 0.466454 -0.249665 0 127 127
-0.510138 -0.561073 0.285777 127 0 127
-0.672897 -0.209462 0.071188 76 153 0
-0.585904 0.515365 0.124128 153 0 76
-0.233204 -0.102454 0.046142 127 0 127
-0.410534 0.117313 -0.429827 76 0 153
-0.018971 -0.308254 -0.416492 76 0 153
-0.690676 -0.572136 0.128037 127 127 0
-0.393139 -0.075785 0.005922 127 0 127
0.264218 0.192538 0.423563 204 51 127
-0.120622 0.395357 0.241142 0 255 0
0.678304 -0.309601 -0.205813 0 127 127
0.125268 -0.240864 0.423563 204 51 127
0.226455 0.291817 0.370227 153 0 76
-0.672897 0.217303 0.251834 76 153 0
0.660525 -0.147772 -0.002332 0 127 127
0.660525 -0.287224 -0.367303 0 127 127
-0.207670 -0.462478 0.052545 153 76 0
0.468284 0.477585 0.393080 0 127 127
0.660525 0.008374 -0.101975 0 127 127
0.523868 0.368647 -0.416492 76 0 153
0.591853 0.515365 0.306468 76 0 153
0.383603 -0.609854 0.285777 127 0 127
-0.277490 0.515365 -0.417260 76 0 153
-0.690676 -0.478387 0.114792 76 153 0
-0.427927 -0.102454 -0.290308 127 0 127
0.220711 -0.100189 -0.416492 127 0 127
0.335076 -0.075785 -0.133303 127 0 127
0.080954 -0.394078 0.423563 204 51 127
-0.318276 -0.280769 0.423563 76 0 153
-0.672897 -0.419681 -0.360133 76 153 0
0.205345 -0.075785 -0.140217 127 0 127
0.523515 -0.075785 0.261647 127 0 127
-0.672897 0.157050 0.179447 76 153 0
-0.690676 -0.310001 -0.256710 76 153 0
-0.110637 0.461940 0.044348 0 0 255
0.342869 0.395357 0.188052 153 76 0
0.531013 0.341697 0.423563 0 127 127
0.059780 -0.075785 -0.058190 127 0 127
-0.050532 -0.102454 -0.090741 127 0 127
0.660525 -0.243521 -0.249767 0 127 127
0.453520 0.324573 -0.429827 76 0 153
0.648588 -0.102454 -0.260064 127 0 127
0.226088 -0.514005 0.285777 127 0 127
-0.095283 0.082822 0.396895 76 0 153
-0.337116 -0.466749 -0.456495 204 51 127
0.000274 -0.049213 -0.429827 76 0 153
0.006861 0.036387 0.370227 153 0 76
-0.652071 0.515365 0.263801 153 0 76
0.598242 -0.557345 0.285777 127 0 127
0.255502 0.065377 -0.429827 76 0 153
0.547059 -0.462478 -0.323323 153 76 0
-0.047029 0.135723 -0.416492 76 0 153
0.678304 -0.524443 0.168442 0 255 0
-0.197799 -0.234330 -0.416492 76 0 153
0.678304 0.158019 -0.066838 0 127 127
-0.474380 -0.484901 0.285777 127 0 127
-0.595114 0.433215 0.153243 204 51 127
0.043583 -0.102454 0.352512 127 0 127
0.660525 0.112976 0.094819 0 127 127
0.224992 -0.476948 -0.416492 76 0 153
-0.690676 -0.382406 -0.165515 76 153 0
-0.526610 -0.207969 -0.429827 76 0 153
-0.588227 0.477234 0.396895 153 0 76
-0.556456 0.234705 0.423563 76 0 153
-0.101692 -0.320969 0.396895 76 0 153
0.680462 0.518642 0.423563 0 127 127
0.508693 -0.209609 -0.416492 76 0 153
-0.125082 -0.075785 -0.226766 127 0 127
-0.615422 0.370911 0.177165 204 51 127
-0.027854 -0.168020 -0.416492 76 0 153
0.648653 -0.462478 -0.376355 153 76 0
0.678304 0.379759 -0.315313 0 127 127
-0.183836 0.458534 -0.416492 76 0 153
-0.677214 -0.506925 0.297865 127 127 0
0.639443 -0.500258 0.412188 204 51 127
0.650410 -0.454995 0.423563 204 51 127
-0.168097 0.415338 -0.416492 76 0 153
0.340282 -0.213923 0.396895 204 51 127
-0.692898 -0.453100 0.403882 153 0 76
0.410704 -0.462478 -0.373994 153 76 0
0.687194 0.553069 0.390197 153 0 76
0.642897 -0.102454 -0.178112 127 0 127
0.577962 0.240513 -0.416492 76 0 153
-0.579913 -0.075785 -0.049599 127 0 127
-0.265927 -0.237078 0.423563 76 0 153
-0.222148 0.069184 0.423563 76 0 153
-0.356605 0.039668 0.423563 76 0 153
-0.595114 0.413921 0.325593 204 51 127
-0.548202 0.388690 -0.267360 0 255 0
0.262551 -0.075785 0.010118 127 0 127
0.678304 0.038148 -0.418110 0 127 127
0.329327 -0.075785 0.007552 127 0 127
0.148671 0.225801 0.396895 204 51 127
0.494647 -0.075785 -0.030170 127 0 127
0.231891 0.476956 -0.287595 76 0 153
-0.374464 0.472009 -0.314263 255 0 0
0.289257 -0.462478 -0.301658 153 76 0
0.407570 -0.462478 0.279260 153 76 0
-0.672897 0.245653 0.199498 76 153 0
0.568681 0.395357 0.077126 153 76 0
-0.470941 -0.312837 0.423563 76 0 153
-0.591584 0.519470 -0.456495 76 0 153
0.184004 -0.462478 -0.348955 153 76 0
0.332416 -0.494783 0.370227 153 0 76
0.071597 0.420875 -0.153427 153 0 76
0.140898 -0.330077 -0.416492 76 0 153
0.660525 -0.402835 -0.208353 0 127 127
-0.661752 0.533144 -0.275268 153 0 76
-0.593473 -0.075785 0.146271 127 0 127
0.003731 -0.462478 0.053223 153 76 0
0.439559 0.275349 0.374572 204 51 127
0.057024 0.293805 0.370227 153 0 76
0.660525 -0.027212 -0.197951 0 127 127
-0.078511 -0.003248 -0.416492 76 0 153
0.446042 -0.075785 0.047310 127 0 127
0.077081 -0.075785 0.214847 127 0 127
-0.221053 -0.075785 -0.006856 127 0 127
0.678304 0.470704 0.350650 0 127 127
0.660525 -0.301109 0.011344 0 127 127
-0.183017 -0.318500 0.396895 76 0 153
-0.369644 -0.462478 -0.066162 153 76 0
0.660525 0.519921 -0.269894 0 127 127
-0.604307 0.533144 0.080619 153 0 76
-0.271376 -0.102454 0.079970 127 0 127
-0.596646 -0.421969 -0.416492 76 0 153
-0.480958 0.388690 0.070743 0 255 0
-0.277034 -0.075785 -0.393165 127 0 127
0.583593 0.515365 -0.038983 76 0 153
0.434070 0.395357 0.039452 153 76 0
-0.056803 0.118883 0.469053 153 0 76
-0.437785 0.058716 -0.416492 76 0 153
-0.690676 -0.483024 -0.239202 76 153 0
0.561957 -0.102454 -0.160014 127 0 127
-0.652166 0.165248 0.423563 76 0 153
0.647392 0.533144 -0.111915 76 0 153
-0.600566 -0.075785 0.250650 127 0 127
-0.127483 0.328686 0.374156 153 0 76
-0.690676 -0.051166 0.159862 76 153 0
-0.663132 0.506136 0.370227 153 0 76
0.678304 -0.338137 0.230504 0 127 127
-0.571572 0.553145 0.422338 153 0 76
0.551468 -0.605692 0.285777 127 0 127
-0.128986 -0.222345 -0.416492 76 0 153
0.649229 0.333256 0.423563 0 127 127
0.186129 -0.257278 -0.416492 76 0 153
0.678304 0.250124 -0.322270 0 127 127
0.130959 -0.462757 -0.416492 153 76 0
0.355922 -0.645231 -0.456495 204 51 127
-0.518724 -0.075785 0.054382 127 0 127
-0.447409 -0.462478 0.104701 153 76 0
-0.672897 0.370154 0.213971 76 153 0
0.609411 0.410372 -0.246744 76 153 0
-0.320574 -0.075785 0.005297 127 0 127
-0.574952 0.533144 0.039986 153 0 76
-0.459618 0.472619 -0.314263 255 0 0
-0.335785 0.412662 -0.314263 255 0 0
0.551346 -0.102454 0.111180 127 0 127
-0.672897 0.176654 -0.112048 76 153 0
0.606082 -0.101419 0.370227 127 0 127
0.609411 0.424599 0.173682 76 153 0
-0.493176 0.435710 -0.314263 255 0 0
0.660525 -0.218191 0.042282 0 127 127
0.104050 0.003005 0.423563 204 51 127
0.435092 -0.462478 0.317167 153 76 0
0.680527 0.403406 0.407927 0 127 127
-0.397600 0.395357 -0.024038 0 255 0
-0.477609 -0.399451 0.396895 76 0 153
-0.519896 -0.462478 -0.180392 153 76 0
0.660525 0.288674 -0.056203 0 127 127
-0.699565 0.366878 0.370397 153 0 76
0.521099 -0.532979 -0.456495 204 51 127
0.098266 0.440424 0.180138 153 0 76
-0.672897 -0.290316 -0.450827 76 153 0
0.209727 -0.079096 0.423563 204 51 127
0.191990 -0.407966 -0.429827 76 0 153
0.071597 0.452296 -0.204527 153 0 76
-0.364329 0.161797 0.423563 76 0 153
-0.606174 0.370911 0.037774 204 51 127
-0.155610 -0.202362 0.396895 76 0 153
0.059520 -0.462478 -0.209386 153 76 0
0.174541 0.515365 -0.418819 76 0 153
0.660525 -0.506854 0.011344 0 255 0
0.148319 0.473286 -0.287595 76 0 153
0.609411 0.403294 -0.000362 76 153 0
0.660525 0.027137 0.218781 0 127 127
-0.672897 -0.504622 -0.410450 76 153 0
0.451820 -0.434388 -0.416492 76 0 153
0.678304 -0.578092 0.205496 0 255 0
-0.083969 0.430746 0.129543 0 0 255
-0.542383 -0.075785 -0.103296 127 0 127
0.567823 0.395357 0.346529 153 76 0
-0.229929 0.454430 0.423563 153 0 76
-0.184057 0.395357 0.087270 0 255 0
0.678304 -0.357943 -0.032634 0 127 127
-0.229527 0.469704 -0.416492 76 0 153
-0.612953 -0.075785 -0.099393 127 0 127
-0.266798 0.275349 0.373943 153 0 76
-0.690676 0.015471 -0.123537 76 153 0
-0.346336 0.506476 0.382941 153 0 76
-0.494746 0.379420 -0.429827 76 0 153
-0.552762 0.154795 -0.429827 76 0 153
-0.690676 0.249923 0.366614 76 153 0
-0.245652 0.388779 -0.314263 255 0 0
0.047151 0.202297 0.378234 204 51 127
0.096997 -0.102454 0.101668 127 0 127
-0.549378 0.375597 -0.314263 255 0 0
-0.127523 -0.462478 -0.182145 153 76 0
-0.273954 0.395357 -0.105748 0 255 0
0.398522 -0.075785 0.028479 127 0 127
0.325526 0.499078 0.423563 0 127 127
0.301538 0.077985 -0.429827 76 0 153
0.634616 -0.187233 0.370227 153 0 76
0.631608 -0.306239 -0.429827 76 0 153
-0.672897 0.137055 -0.131585 76 153 0
0.457921 0.432685 -0.287595 76 0 153
-0.643445 -0.462478 0.328489 153 76 0
-0.646228 0.055513 0.394973 153 0 76
0.564271 0.415120 -0.314263 76 0 153
0.382031 -0.127066 0.423563 204 51 127
0.687194 0.322573 0.384264 153 0 76
0.517817 0.502340 -0.416492 76 0 153
0.404083 -0.075785 0.331711 127 0 127
-0.226006 -0.060435 0.423563 76 0 153
0.371892 -0.322733 0.423563 204 51 127
0.220899 -0.102454 -0.093780 127 0 127
0.110996 0.388690 0.314290 153 0 76
0.093520 -0.553241 -0.456495 204 51 127
-0.524449 0.339962 -0.416492 76 0 153
0.012610 -0.153313 -0.429827 76 0 153
-0.690676 -0.618895 0.245720 127 127 0
-0.063433 -0.660057 0.285777 127 0 127
0.492285 0.395119 0.396895 0 127 127
0.649838 0.451239 -0.416492 76 0 153
0.054750 -0.104969 -0.416492 127 0 127
0.589249 0.038860 0.423563 204 51 127
0.678304 -0.647879 -0.410437 0 255 0
-0.585702 0.388690 0.260454 204 51 127
-0.293060 -0.075785 -0.228550 127 0 127
-0.639795 0.034264 -0.429827 76 0 153
0.382149 0.129990 -0.416492 76 0 153
0.467103 0.312135 0.396895 0 127 127
-0.672897 0.008096 -0.435872 76 0 153
-0.620247 -0.102454 0.076414 127 0 127
-0.597155 -0.075785 0.368468 127 0 127
0.484144 -0.372133 0.396895 204 51 127
0.338464 -0.462478 -0.249112 153 76 0
-0.619985 -0.499924 -0.456495 204 51 127
-0.178749 -0.166550 -0.429827 76 0 153
0.468659 0.015026 0.396895 204 51 127
-0.226346 0.314701 0.396895 153 0 76
0.648969 -0.075785 -0.107554 127 0 127
-0.621782 0.477506 -0.108468 204 51 127
-0.403951 -0.075785 0.072524 127 0 127
0.109812 -0.102454 0.346160 127 0 127
-0.646080 -0.580119 -0.456495 204 51 127
-0.327984 0.395357 0.336061 0 255 0
0.443924 -0.494961 0.423563 204 51 127
0.606743 0.370911 -0.267968 76 153 0
-0.434870 0.472203 0.370227 153 0 76
0.288454 -0.075785 -0.062936 127 0 127
0.144600 -0.117342 -0.416492 76 0 153
-0.236923 -0.620628 0.285777 127 0 127
0.365871 0.388690 -0.180893 153 76 0
-0.192412 0.395357 -0.255829 0 255 0
-0.110637 0.444715 -0.062013 0 0 255
0.660525 0.444446 -0.059945 0 127 127
-0.110637 0.401682 -0.257658 0 255 0
0.611281 0.328686 0.395554 153 0 76
0.179126 -0.462478 -0.160440 153 76 0
